ply
format ascii 1.0
comment VTK generated PLY File
obj_info vtkPolyData points and polygons : vtk4.0
element vertex 2070
property float x
property float y
property float z
element face 0
property list uchar int vertex_indices
end_header
0.626231 0.246387 3.272 
0.644108 0.247366 3.285 
0.662308 0.248421 3.299 
0.681049 0.249625 3.315 
0.700782 0.251131 3.335 
0.722634 0.253315 3.364 
0.749149 0.257005 3.413 
0.775675 0.260544 3.46 
0.802182 0.263933 3.505 
0.826777 0.266568 3.54 
0.839787 0.265439 3.525 
0.858243 0.266041 3.533 
0.878508 0.267171 3.548 
0.894625 0.26702 3.546 
0.910466 0.266794 3.543 
0.926279 0.266568 3.54 
0.941531 0.266192 3.535 
0.956736 0.265815 3.53 
0.97217 0.265514 3.526 
0.988407 0.265439 3.525 
1.00521 0.265514 3.526 
1.02317 0.265891 3.531 
1.04178 0.266418 3.538 
1.06074 0.26702 3.546 
1.0807 0.267848 3.557 
1.10106 0.268752 3.569 
1.12217 0.269806 3.583 
1.1434 0.27086 3.597 
1.16445 0.271839 3.61 
1.18463 0.272592 3.62 
1.20391 0.27312 3.627 
1.22158 0.27327 3.629 
1.23858 0.27327 3.629 
1.25489 0.27312 3.627 
1.27118 0.272969 3.625 
1.2878 0.272894 3.624 
1.30406 0.272743 3.622 
1.3203 0.272592 3.62 
1.33652 0.272442 3.618 
1.35234 0.272216 3.615 
1.36814 0.27199 3.612 
1.38391 0.271764 3.609 
1.39694 0.271011 3.599 
1.40555 0.26943 3.578 
0 0 0 
2.64567 0.495335 6.578 
2.6594 0.492172 6.536 
2.69043 0.492248 6.537 
2.71564 0.491269 6.524 
2.74242 0.490591 6.515 
2.76783 0.489687 6.503 
2.79141 0.488483 6.487 
2.81266 0.486901 6.466 
2.8324 0.485094 6.442 
2.85058 0.483061 6.415 
2.86716 0.480802 6.385 
2.88392 0.478618 6.356 
2.90132 0.476585 6.329 
2.91985 0.474778 6.305 
2.93956 0.473196 6.284 
2.96003 0.471766 6.265 
2.97983 0.47026 6.245 
2.99897 0.468678 6.224 
3.01694 0.466946 6.201 
3.03371 0.465064 6.176 
3.0557 0.464009 6.162 
3.08306 0.463784 6.159 
3.09372 0.461073 6.123 
3.11782 0.460395 6.114 
3.14131 0.459642 6.104 
3.15952 0.458136 6.084 
3.17388 0.456103 6.057 
3.20331 0.456253 6.059 
3.14475 0.443979 5.896 
3.15516 0.44157 5.864 
3.13975 0.435621 5.785 
3.15043 0.433362 5.755 
3.16966 0.432307 5.741 
3.19043 0.431479 5.73 
3.20941 0.430425 5.716 
3.22543 0.428994 5.697 
3.23728 0.427036 5.671 
3.246 0.424702 5.64 
3.25212 0.422066 5.605 
3.2579 0.419431 5.57 
3.26572 0.417096 5.539 
3.27741 0.415289 5.515 
3.29306 0.414009 5.498 
3.31278 0.413256 5.488 
3.33058 0.412277 5.475 
3.34765 0.411223 5.461 
3.35779 0.40934 5.436 
3.37081 0.407834 5.416 
3.38301 0.406253 5.395 
3.39628 0.404822 5.376 
3.41001 0.403467 5.358 
3.42613 0.402413 5.344 
3.44213 0.401358 5.33 
3.45669 0.400154 5.314 
3.46848 0.398648 5.294 
3.47942 0.397066 5.273 
3.48884 0.395334 5.25 
3.49938 0.393753 5.229 
3.50973 0.392172 5.208 
3.52123 0.390741 5.189 
3.53597 0.389687 5.175 
3.55334 0.388934 5.165 
3.57199 0.388331 5.157 
3.59127 0.387804 5.15 
3.61188 0.387428 5.145 
3.63316 0.387126 5.141 
3.65511 0.3869 5.138 
3.67775 0.38675 5.136 
3.70253 0.386825 5.137 
3.73095 0.387277 5.143 
3.76234 0.38803 5.153 
3.79897 0.38931 5.17 
3.83872 0.390891 5.191 
3.88239 0.392849 5.217 
3.92929 0.395108 5.247 
3.97723 0.397443 5.278 
4.02622 0.399852 5.31 
4.07628 0.402337 5.343 
4.1251 0.404672 5.374 
4.17345 0.406931 5.404 
4.21819 0.408813 5.429 
4.25925 0.410319 5.449 
4.29657 0.411449 5.464 
4.3285 0.412051 5.472 
4.35811 0.412428 5.477 
4.38857 0.41288 5.483 
4.4207 0.413482 5.491 
4.45776 0.414536 5.505 
4.49984 0.416042 5.525 
4.54702 0.418 5.551 
4.59691 0.420184 5.58 
4.64625 0.422292 5.608 
4.69252 0.4241 5.632 
4.73147 0.425229 5.647 
4.76214 0.425606 5.652 
4.78438 0.425229 5.647 
4.80061 0.424325 5.635 
4.81416 0.423196 5.62 
4.83015 0.422292 5.608 
4.85296 0.421991 5.604 
4.88531 0.422518 5.611 
4.92735 0.423874 5.629 
4.98012 0.426133 5.659 
5.04379 0.429295 5.701 
5.11586 0.433136 5.752 
5.19555 0.437579 5.811 
5.2785 0.442247 5.873 
5.36203 0.446916 5.935 
5.44341 0.451359 5.994 
5.51987 0.45535 6.047 
5.59224 0.458964 6.095 
5.66137 0.462278 6.139 
5.7272 0.46529 6.179 
5.78969 0.468001 6.215 
5.85063 0.470561 6.249 
5.90814 0.47282 6.279 
5.96308 0.474853 6.306 
6.01258 0.476434 6.327 
6.05655 0.477564 6.342 
6.09393 0.478166 6.35 
6.12561 0.478317 6.352 
6.15343 0.478166 6.35 
6.17928 0.477865 6.346 
6.2051 0.477564 6.342 
6.23382 0.477489 6.341 
6.26649 0.477714 6.344 
6.30018 0.478016 6.348 
6.33889 0.478693 6.357 
0 0 0 
0 0 0 
-0 0 0 
-0 0 0 
-0 0 0 
-0 0 0 
-0 0 0 
-4.21349 0.347301 4.342 
-4.18833 0.346901 4.337 
-4.15936 0.346181 4.328 
-4.13526 0.345861 4.324 
-4.11595 0.345941 4.325 
-4.10895 0.347061 4.339 
-4.07543 0.345941 4.325 
-4.04954 0.345461 4.319 
-4.02465 0.345061 4.314 
-3.99887 0.344582 4.308 
-4.05257 0.35098 4.388 
-4.02834 0.350661 4.384 
-4.01146 0.35098 4.388 
-3.98908 0.35082 4.386 
-3.96582 0.350581 4.383 
-3.94169 0.350261 4.379 
-3.9167 0.349861 4.374 
-3.89175 0.349461 4.369 
-3.86863 0.349221 4.366 
-3.84905 0.349301 4.367 
-3.83386 0.349781 4.373 
-3.82035 0.350421 4.381 
-3.8085 0.35122 4.391 
-3.80173 0.3525 4.407 
-3.79138 0.35346 4.419 
-3.78262 0.35458 4.433 
-3.76525 0.3549 4.437 
-3.75122 0.35554 4.445 
-3.73291 0.35578 4.448 
-3.71374 0.35594 4.45 
-3.6929 0.35594 4.45 
-3.67123 0.35586 4.449 
-3.65038 0.35586 4.449 
-3.62873 0.35578 4.448 
-3.61275 0.35626 4.454 
-3.59431 0.3565 4.457 
-3.57583 0.356739 4.46 
-3.55893 0.357139 4.465 
-3.54276 0.357619 4.471 
-3.52103 0.357539 4.47 
-3.49852 0.357379 4.468 
-3.48071 0.357699 4.472 
-3.46672 0.358419 4.481 
-3.45034 0.358899 4.487 
-3.43314 0.359299 4.492 
-3.41818 0.359939 4.5 
-3.40011 0.360259 4.504 
-3.36476 0.358739 4.485 
-3.35046 0.359459 4.494 
-3.32941 0.359459 4.494 
-3.29658 0.358179 4.478 
-3.26316 0.356819 4.461 
-3.23063 0.35554 4.445 
-3.2062 0.35514 4.44 
-3.19114 0.35578 4.448 
-3.17315 0.3561 4.452 
-3.15867 0.356819 4.461 
-3.13777 0.356819 4.461 
-3.11687 0.356819 4.461 
-3.09667 0.356899 4.462 
-3.07852 0.357219 4.466 
-3.05966 0.357459 4.469 
-3.04688 0.358419 4.481 
-3.02926 0.358819 4.486 
-3.0116 0.359219 4.491 
-2.99389 0.359619 4.496 
-2.97746 0.360179 4.503 
-2.96424 0.361139 4.515 
-2.96199 0.363458 4.544 
-2.94394 0.363858 4.549 
-2.92649 0.364338 4.555 
-2.90834 0.364738 4.56 
-2.90217 0.366658 4.584 
-2.8851 0.367218 4.591 
-2.87294 0.368418 4.606 
-2.84827 0.368018 4.601 
-2.82979 0.368418 4.606 
-2.80516 0.368018 4.601 
-2.78784 0.368577 4.608 
-2.77166 0.369297 4.617 
-2.75539 0.370017 4.626 
-2.7349 0.370177 4.628 
-2.71439 0.370337 4.63 
-2.69387 0.370497 4.632 
-2.68428 0.372177 4.653 
-2.66706 0.372817 4.661 
-2.6509 0.373617 4.671 
-2.64253 0.375536 4.695 
-2.62444 0.376096 4.702 
-2.60352 0.376256 4.704 
-2.59905 0.378816 4.736 
-2.57849 0.379056 4.739 
-2.55791 0.379296 4.742 
-2.53623 0.379376 4.743 
-2.51189 0.379056 4.739 
-2.48286 0.378016 4.726 
-2.45395 0.376976 4.713 
-2.41536 0.374416 4.681 
-2.38269 0.372737 4.66 
-2.36036 0.372657 4.659 
-2.34706 0.374017 4.676 
-2.33063 0.374896 4.687 
-2.31606 0.376096 4.702 
-2.30135 0.377296 4.717 
-2.28892 0.378896 4.737 
-2.27773 0.380735 4.76 
-2.26728 0.382735 4.785 
-2.25659 0.384735 4.81 
-2.24846 0.387214 4.841 
-2.23727 0.389214 4.866 
-2.2254 0.391134 4.89 
-2.2133 0.393053 4.914 
-2.20232 0.395213 4.941 
-2.19196 0.397533 4.97 
-2.18177 0.399932 5 
-2.17129 0.402332 5.03 
-2.16011 0.404651 5.059 
-2.14739 0.406731 5.085 
-2.13318 0.408571 5.108 
-2.11709 0.41009 5.127 
-2.09838 0.41113 5.14 
-2.07834 0.41193 5.15 
-2.0566 0.41241 5.156 
-2.03363 0.41265 5.159 
-2.00985 0.41273 5.16 
-1.9853 0.41265 5.159 
-1.95961 0.41233 5.155 
-1.93246 0.41169 5.147 
-1.90501 0.41097 5.138 
-1.87654 0.41001 5.126 
-1.84819 0.409051 5.114 
-1.82067 0.408251 5.104 
-1.79465 0.407771 5.098 
-1.77042 0.407691 5.097 
-1.74825 0.408091 5.102 
-1.72773 0.408891 5.112 
-1.70945 0.41025 5.129 
-1.69232 0.41193 5.15 
-1.67532 0.41369 5.172 
-1.65812 0.41545 5.194 
-1.63945 0.416889 5.212 
-1.61906 0.417929 5.225 
-1.59733 0.418649 5.234 
-1.57461 0.419129 5.24 
-1.55184 0.419609 5.246 
-1.52901 0.420089 5.252 
-1.5067 0.420729 5.26 
-1.48403 0.421289 5.267 
-1.46102 0.421768 5.273 
-1.43822 0.422328 5.28 
-1.41536 0.422888 5.287 
-1.39296 0.423608 5.296 
-1.37047 0.424328 5.305 
-1.3479 0.425048 5.314 
-1.32525 0.425768 5.323 
-1.30227 0.426408 5.331 
-1.27921 0.427048 5.339 
-1.25584 0.427607 5.346 
-1.23195 0.428007 5.351 
-1.20779 0.428327 5.355 
-1.18314 0.428487 5.357 
-1.15805 0.428487 5.357 
-1.13274 0.428407 5.356 
-1.10723 0.428247 5.354 
-1.08215 0.428247 5.354 
-1.05786 0.428567 5.358 
-1.03392 0.429047 5.364 
-1.01029 0.429687 5.372 
-0.986777 0.430407 5.381 
-0.962999 0.431047 5.389 
-0.938797 0.431527 5.395 
-0.914709 0.432087 5.402 
-0.890555 0.432647 5.409 
-0.866495 0.433286 5.417 
-0.842516 0.434006 5.426 
-0.818603 0.434806 5.436 
-0.794304 0.435446 5.444 
-0.769507 0.435846 5.449 
-0.74398 0.435846 5.449 
-0.717663 0.435366 5.443 
-0.690638 0.434406 5.431 
-0.663113 0.433046 5.414 
-0.635277 0.431367 5.393 
-0.607298 0.429447 5.369 
-0.579435 0.427447 5.344 
-0.551911 0.425528 5.32 
-0.524908 0.423848 5.299 
-0.498668 0.422648 5.284 
-0.473018 0.421848 5.274 
-0.447886 0.421448 5.269 
-0.422881 0.421129 5.265 
-0.397763 0.420649 5.259 
-0.372558 0.420009 5.251 
-0.347297 0.419209 5.241 
-0.322067 0.418329 5.23 
-0.296884 0.417369 5.218 
-0.271865 0.416489 5.207 
-0.246996 0.415689 5.197 
-0.222136 0.41473 5.185 
-0.197236 0.41345 5.169 
-0.172519 0.41225 5.154 
-0.147913 0.41097 5.138 
-0.123506 0.40985 5.124 
-0.0992688 0.408891 5.112 
-0.0751293 0.407851 5.099 
-0.0511317 0.406971 5.088 
-0.0272264 0.405931 5.075 
-0.00344089 0.404651 5.059 
0.0201667 0.402812 5.036 
0.0434979 0.400412 5.006 
0.0665882 0.398252 4.979 
0.0894256 0.396093 4.952 
0.112078 0.394173 4.928 
0.133848 0.390334 4.88 
0.155842 0.388174 4.853 
0.177767 0.386414 4.831 
0.200523 0.386654 4.834 
0.222384 0.385295 4.817 
0.24078 0.378736 4.735 
0.262517 0.378096 4.727 
0.284421 0.377776 4.723 
0.306352 0.377536 4.72 
0.328533 0.377616 4.721 
0.34753 0.374256 4.679 
0.37016 0.374976 4.688 
0.388609 0.371617 4.646 
0.423181 0.383215 4.791 
0 0 0 
0 0 0 
0 0 0 
0 0 0 
0 0 0 
0 0 0 
0 0 0 
0 0 0 
0 0 0 
0 0 0 
0 0 0 
0 0 0 
0 0 0 
0.494062 0.256756 3.21 
0.510369 0.257396 3.218 
0.527404 0.258356 3.23 
0.547406 0.260676 3.259 
0.561637 0.260196 3.253 
0.577409 0.260436 3.256 
0.593026 0.260596 3.258 
0.609409 0.261076 3.264 
0.625848 0.261556 3.27 
0.643127 0.262355 3.28 
0.660701 0.263235 3.291 
0.682898 0.265875 3.324 
0.702463 0.267395 3.343 
0.728005 0.271074 3.389 
0.753759 0.274673 3.434 
0.785539 0.280272 3.504 
0.812024 0.283792 3.548 
0.836586 0.286511 3.582 
0.849554 0.285232 3.566 
0.865531 0.284992 3.563 
0.88247 0.285072 3.564 
0.8974 0.284512 3.557 
0.913807 0.284432 3.556 
0.929419 0.284112 3.552 
0.944993 0.283792 3.548 
0.959988 0.283312 3.542 
0.975478 0.282992 3.538 
0.991492 0.282832 3.536 
1.00834 0.282912 3.537 
1.02636 0.283312 3.542 
1.04472 0.283792 3.548 
1.06373 0.284432 3.556 
1.08343 0.285232 3.566 
1.10384 0.286191 3.578 
1.12467 0.287231 3.591 
1.14563 0.288271 3.604 
1.1667 0.289311 3.617 
1.18692 0.290111 3.627 
1.2059 0.290591 3.633 
1.22393 0.290831 3.636 
1.24097 0.290831 3.636 
1.25765 0.290751 3.635 
1.27398 0.290591 3.633 
1.29029 0.290431 3.631 
1.30658 0.290271 3.629 
1.32249 0.290031 3.626 
1.33836 0.289791 3.623 
1.35384 0.289471 3.619 
1.36966 0.289231 3.616 
1.38583 0.289071 3.614 
1.39966 0.288431 3.606 
0 0 0 
0 0 0 
2.6316 0.523351 6.543 
2.65696 0.522311 6.53 
2.68426 0.521671 6.522 
2.70982 0.520712 6.51 
2.73737 0.520152 6.503 
2.76315 0.519272 6.492 
2.78711 0.518072 6.477 
2.80962 0.516632 6.459 
2.82977 0.514793 6.436 
2.84792 0.512633 6.409 
2.86537 0.510393 6.381 
2.8821 0.508074 6.352 
2.89994 0.505994 6.326 
2.91892 0.504154 6.303 
2.93956 0.502635 6.284 
2.96097 0.501275 6.267 
2.98126 0.499755 6.248 
3.00138 0.498235 6.229 
3.01986 0.496476 6.207 
3.03714 0.494556 6.183 
3.05718 0.493116 6.165 
3.08056 0.492236 6.154 
3.10332 0.491277 6.142 
3.11476 0.488557 6.108 
3.11507 0.484158 6.053 
3.12473 0.481278 6.017 
3.13091 0.477919 5.975 
3.13775 0.474719 5.935 
3.13462 0.47008 5.877 
3.13579 0.466161 5.828 
3.14029 0.462801 5.786 
3.15262 0.460642 5.759 
3.16966 0.459202 5.741 
3.18876 0.458082 5.727 
3.20604 0.456722 5.71 
3.21977 0.454883 5.687 
3.23043 0.452643 5.659 
3.23737 0.449924 5.625 
3.24225 0.446964 5.588 
3.24738 0.444085 5.552 
3.2557 0.441685 5.522 
3.26968 0.440085 5.502 
3.28947 0.439285 5.492 
3.31338 0.439045 5.489 
3.33423 0.438406 5.481 
3.35316 0.437526 5.47 
3.35964 0.435046 5.439 
3.37081 0.433206 5.416 
3.38176 0.431367 5.393 
3.39312 0.429607 5.371 
3.40492 0.427927 5.35 
3.42293 0.427048 5.339 
3.44148 0.426248 5.329 
3.45669 0.425048 5.314 
3.46979 0.423608 5.296 
3.48074 0.421928 5.275 
3.49083 0.420169 5.253 
3.49938 0.418249 5.229 
3.50973 0.416569 5.208 
3.52055 0.41497 5.188 
3.53529 0.41385 5.174 
3.55196 0.41297 5.163 
3.57061 0.41233 5.155 
3.59057 0.41185 5.149 
3.61188 0.41153 5.145 
3.63387 0.41129 5.142 
3.65653 0.41113 5.14 
3.68133 0.41121 5.141 
3.70829 0.41153 5.145 
3.7382 0.41217 5.153 
3.77256 0.41329 5.167 
3.81 0.41473 5.185 
3.85129 0.416569 5.208 
3.89504 0.418649 5.234 
3.94128 0.420969 5.263 
3.98929 0.423448 5.294 
4.03836 0.426008 5.326 
4.08848 0.428647 5.359 
4.13738 0.431127 5.39 
4.1858 0.433526 5.42 
4.23139 0.435606 5.446 
4.27332 0.437286 5.467 
4.30994 0.438406 5.481 
4.34353 0.439205 5.491 
4.37403 0.439685 5.497 
4.40458 0.440165 5.503 
4.43841 0.440965 5.513 
4.47557 0.442085 5.527 
4.51857 0.443765 5.548 
4.56586 0.445844 5.574 
4.61504 0.448084 5.602 
4.66365 0.450244 5.629 
4.70835 0.452003 5.651 
4.74572 0.453043 5.664 
4.77393 0.453203 5.666 
4.79285 0.452483 5.657 
4.80657 0.451283 5.642 
4.8193 0.450004 5.626 
4.83618 0.449124 5.615 
4.85989 0.448884 5.612 
4.89488 0.449684 5.622 
4.9396 0.451363 5.643 
4.99508 0.454003 5.676 
5.05971 0.457442 5.719 
5.13187 0.461522 5.77 
5.20986 0.466081 5.827 
5.29018 0.4708 5.886 
5.37106 0.475519 5.945 
5.44977 0.479999 6.001 
5.52626 0.484238 6.054 
5.59866 0.488077 6.102 
5.66875 0.491677 6.147 
5.73647 0.495036 6.189 
5.80087 0.498075 6.227 
5.8628 0.500875 6.262 
5.92037 0.503275 6.292 
5.97348 0.505274 6.317 
6.02113 0.506794 6.336 
6.06132 0.507674 6.347 
6.09681 0.508154 6.353 
6.12754 0.508234 6.354 
6.15537 0.508074 6.352 
6.1822 0.507834 6.349 
6.21097 0.507754 6.348 
6.24365 0.507994 6.351 
6.27835 0.508394 6.356 
6.31408 0.508874 6.362 
6.34388 0.508874 6.362 
0 0 0 
0 0 0 
-0 0 0 
-0 0 0 
-0 0 0 
-0 0 0 
-0 0 0 
-0 0 0 
-4.18543 0.366964 4.334 
-4.15263 0.365864 4.321 
-4.12761 0.36544 4.316 
-4.1112 0.365779 4.32 
-4.09759 0.366372 4.327 
-4.08391 0.366964 4.334 
-4.06455 0.367049 4.335 
-4.04704 0.367303 4.338 
-4.03228 0.367811 4.344 
-4.02948 0.36942 4.363 
-4.00904 0.36942 4.363 
-3.99135 0.369674 4.366 
-3.96544 0.369166 4.36 
-3.93958 0.368658 4.354 
-3.91558 0.368319 4.35 
-3.88983 0.367811 4.344 
-3.86503 0.367388 4.339 
-3.83939 0.36688 4.333 
-3.81644 0.366626 4.33 
-3.79616 0.366626 4.33 
-3.77762 0.366795 4.332 
-3.76079 0.367134 4.336 
-3.75515 0.368573 4.353 
-3.72617 0.367727 4.343 
-3.71777 0.368912 4.357 
-3.7033 0.369505 4.364 
-3.69383 0.370605 4.377 
-3.68256 0.371537 4.388 
-3.66367 0.371706 4.39 
-3.64393 0.371791 4.391 
-3.62254 0.371706 4.39 
-3.59623 0.371113 4.383 
-3.5757 0.371113 4.383 
-3.56165 0.371791 4.391 
-3.54431 0.372129 4.395 
-3.52853 0.372637 4.401 
-3.5127 0.373145 4.407 
-3.50473 0.3745 4.423 
-3.47692 0.373738 4.414 
-3.4672 0.374924 4.428 
-3.45813 0.376194 4.443 
-3.45202 0.377802 4.462 
-3.43419 0.378141 4.466 
-3.41786 0.378649 4.472 
-3.40222 0.379242 4.479 
-3.38502 0.379665 4.484 
-3.35951 0.379157 4.478 
-3.30424 0.375262 4.432 
-3.27607 0.374416 4.422 
-3.24652 0.373399 4.41 
-3.21854 0.372553 4.4 
-3.22555 0.37577 4.438 
-3.1997 0.375178 4.431 
-3.19258 0.376786 4.45 
-3.16888 0.376448 4.446 
-3.16292 0.378226 4.467 
-3.13988 0.377972 4.464 
-3.11827 0.377887 4.463 
-3.10014 0.378226 4.467 
-3.08335 0.378734 4.473 
-3.06787 0.379411 4.481 
-3.03736 0.378226 4.467 
-3.02251 0.378988 4.476 
-3.00825 0.379834 4.486 
-2.99456 0.380766 4.497 
-2.98275 0.381951 4.511 
-2.96753 0.382713 4.52 
-2.97177 0.386015 4.559 
-2.97824 0.389656 4.602 
-2.95861 0.38991 4.605 
-2.9364 0.389826 4.604 
-2.9161 0.389995 4.606 
-2.89264 0.389741 4.603 
-2.87856 0.390757 4.615 
-2.84827 0.389572 4.601 
-2.81934 0.388556 4.589 
-2.79907 0.388725 4.591 
-2.77937 0.388979 4.594 
-2.76145 0.389487 4.6 
-2.74407 0.39008 4.607 
-2.72367 0.390249 4.609 
-2.70326 0.390418 4.611 
-2.68224 0.390503 4.612 
-2.67794 0.393043 4.642 
-2.67736 0.396176 4.679 
-2.65942 0.396769 4.686 
-2.63971 0.397107 4.69 
-2.62109 0.397615 4.696 
-2.60518 0.398547 4.707 
-2.59466 0.400325 4.728 
-2.57305 0.40041 4.729 
-2.55198 0.400579 4.731 
-2.53035 0.400664 4.732 
-2.50659 0.40041 4.729 
-2.47918 0.399563 4.719 
-2.45031 0.398462 4.706 
-2.41588 0.39643 4.682 
-2.38525 0.394991 4.665 
-2.36188 0.394737 4.662 
-2.34506 0.395583 4.672 
-2.32765 0.396345 4.681 
-2.31261 0.397531 4.695 
-2.29794 0.398801 4.71 
-2.28505 0.40041 4.729 
-2.27343 0.402272 4.751 
-2.26207 0.40422 4.774 
-2.25096 0.406252 4.798 
-2.24056 0.408453 4.824 
-2.229 0.410485 4.848 
-2.21675 0.412433 4.871 
-2.20564 0.414634 4.897 
-2.19607 0.417174 4.927 
-2.18755 0.419969 4.96 
-2.17915 0.422847 4.994 
-2.17129 0.425896 5.03 
-2.16182 0.42869 5.063 
-2.15077 0.43123 5.093 
-2.13777 0.433431 5.119 
-2.12205 0.435125 5.139 
-2.10369 0.43631 5.153 
-2.08318 0.437072 5.162 
-2.06099 0.437495 5.167 
-2.03797 0.43775 5.17 
-2.01414 0.437834 5.171 
-1.98953 0.43775 5.17 
-1.96379 0.437411 5.166 
-1.93659 0.436733 5.158 
-1.90871 0.435887 5.148 
-1.87984 0.434786 5.135 
-1.85145 0.43377 5.123 
-1.82388 0.432923 5.113 
-1.79781 0.432415 5.107 
-1.77354 0.432331 5.106 
-1.75065 0.432585 5.109 
-1.7301 0.433431 5.119 
-1.71112 0.434701 5.134 
-1.69331 0.43631 5.153 
-1.67597 0.438088 5.174 
-1.65812 0.439782 5.194 
-1.63945 0.441306 5.212 
-1.61937 0.442491 5.226 
-1.59763 0.443253 5.235 
-1.57521 0.443846 5.242 
-1.55273 0.444439 5.249 
-1.52988 0.444947 5.255 
-1.50727 0.445539 5.262 
-1.48431 0.446047 5.268 
-1.46129 0.446555 5.274 
-1.43822 0.447063 5.28 
-1.41563 0.447741 5.288 
-1.39296 0.448418 5.296 
-1.37047 0.44918 5.305 
-1.34765 0.449857 5.313 
-1.32475 0.450535 5.321 
-1.30129 0.451043 5.327 
-1.27777 0.451551 5.333 
-1.2542 0.452059 5.339 
-1.23034 0.452482 5.344 
-1.20643 0.452906 5.349 
-1.18226 0.453244 5.353 
-1.15783 0.453498 5.356 
-1.13316 0.453668 5.358 
-1.10848 0.453837 5.36 
-1.08397 0.454091 5.363 
-1.05984 0.454514 5.368 
-1.03623 0.455192 5.376 
-1.01274 0.455954 5.385 
-0.988978 0.456631 5.393 
-0.964964 0.457224 5.4 
-0.940537 0.457647 5.405 
-0.915894 0.457986 5.409 
-0.891213 0.458325 5.413 
-0.866815 0.458833 5.419 
-0.842516 0.459425 5.426 
-0.818302 0.460103 5.434 
-0.793867 0.460695 5.441 
-0.768942 0.461034 5.445 
-0.743571 0.461119 5.446 
-0.717531 0.46078 5.442 
-0.690892 0.460018 5.433 
-0.663848 0.458917 5.42 
-0.636455 0.457478 5.403 
-0.608881 0.455784 5.383 
-0.58117 0.453837 5.36 
-0.553778 0.451974 5.338 
-0.526592 0.450112 5.316 
-0.49999 0.448587 5.298 
-0.474184 0.447656 5.287 
-0.448821 0.447063 5.28 
-0.423765 0.446725 5.276 
-0.398595 0.446217 5.27 
-0.37341 0.445624 5.263 
-0.348092 0.444777 5.253 
-0.322744 0.443761 5.241 
-0.297339 0.442491 5.226 
-0.27223 0.441475 5.214 
-0.247282 0.440544 5.203 
-0.22235 0.439443 5.19 
-0.197388 0.438004 5.173 
-0.172519 0.436395 5.154 
-0.147856 0.434871 5.136 
-0.123458 0.433685 5.122 
-0.0992106 0.432585 5.109 
-0.0751588 0.431907 5.101 
-0.0511317 0.430806 5.088 
-0.0272532 0.430129 5.08 
-0.00344361 0.42869 5.063 
0.0201747 0.426573 5.038 
0.0432373 0.421323 4.976 
0.0662539 0.419461 4.954 
0.0896423 0.420307 4.964 
0.112351 0.418275 4.94 
0.134616 0.415566 4.908 
0.156773 0.413364 4.882 
0.177988 0.409554 4.837 
0.199984 0.408199 4.821 
0.221922 0.407014 4.807 
0.23661 0.393975 4.653 
0.258019 0.393382 4.646 
0.279603 0.393128 4.643 
0 0 0 
0 0 0 
0 0 0 
0 0 0 
0 0 0 
0 0 0 
0 0 0 
0 0 0 
0 0 0 
0 0 0 
0 0 0 
0 0 0 
0 0 0 
0 0 0 
0 0 0 
0 0 0 
0 0 0 
0 0 0 
0 0 0 
0.499295 0.274673 3.244 
0.517347 0.276197 3.262 
0.534588 0.277213 3.274 
0.549758 0.277128 3.273 
0.564573 0.276874 3.27 
0.579891 0.276874 3.27 
0.595574 0.277044 3.272 
0.611649 0.277382 3.276 
0.628145 0.277891 3.282 
0.645284 0.278653 3.291 
0.66291 0.279584 3.302 
0.680638 0.280515 3.313 
0.707506 0.285088 3.367 
0.735309 0.289829 3.423 
0 0 0 
0.806836 0.304731 3.599 
0.833766 0.308457 3.643 
0.841257 0.304985 3.602 
0.853366 0.303292 3.582 
0.869661 0.303122 3.58 
0.882965 0.301937 3.566 
0.899166 0.301768 3.564 
0.915349 0.301598 3.562 
0.93125 0.301344 3.559 
0.946858 0.301006 3.555 
0.962156 0.300582 3.55 
0.977684 0.300244 3.546 
0.993735 0.300074 3.544 
1.01091 0.300244 3.546 
1.02868 0.300582 3.55 
1.04708 0.30109 3.556 
1.06583 0.301683 3.563 
1.08525 0.302445 3.572 
1.10538 0.303376 3.583 
1.12592 0.304393 3.595 
1.1469 0.305493 3.608 
1.16735 0.306425 3.619 
1.18758 0.307271 3.629 
1.2069 0.307864 3.636 
1.22528 0.308203 3.64 
1.24267 0.308287 3.641 
1.25938 0.308203 3.64 
1.27573 0.308033 3.638 
1.29207 0.307864 3.636 
1.30838 0.307695 3.634 
1.32431 0.307441 3.631 
1.34021 0.307187 3.628 
1.35608 0.306933 3.625 
1.37193 0.306679 3.622 
1.38813 0.306509 3.62 
1.40354 0.306171 3.616 
0 0 0 
0 0 0 
2.6131 0.550108 6.497 
2.63946 0.549261 6.487 
2.66985 0.549261 6.487 
2.69816 0.548838 6.482 
2.72768 0.548669 6.48 
2.75421 0.547907 6.471 
2.77979 0.546975 6.46 
2.80309 0.54562 6.444 
2.82449 0.543927 6.424 
2.84347 0.54181 6.399 
2.86133 0.539524 6.372 
2.87893 0.537238 6.345 
2.89719 0.535121 6.32 
2.91707 0.533343 6.299 
2.93863 0.531904 6.282 
2.9605 0.530549 6.266 
2.98222 0.529194 6.25 
3.00234 0.527586 6.231 
3.02083 0.525723 6.209 
3.03764 0.523606 6.184 
3.0557 0.521743 6.162 
3.07555 0.520219 6.144 
3.09473 0.51861 6.125 
3.10762 0.515986 6.094 
3.11661 0.512768 6.056 
3.12369 0.509297 6.015 
3.12776 0.505402 5.969 
3.13035 0.501338 5.921 
3.12982 0.49685 5.868 
3.1331 0.49304 5.823 
3.13921 0.489738 5.784 
3.15043 0.487282 5.755 
3.1669 0.485673 5.736 
3.18375 0.484149 5.718 
3.19987 0.482541 5.699 
3.21241 0.480424 5.674 
3.22072 0.477714 5.642 
3.22586 0.474581 5.605 
3.22891 0.471195 5.565 
3.23392 0.468146 5.529 
3.24273 0.465691 5.5 
3.25839 0.464252 5.483 
3.28108 0.463828 5.478 
3.31097 0.464421 5.485 
3.33606 0.464336 5.484 
3.35929 0.463998 5.48 
3.34482 0.458494 5.415 
3.35649 0.456631 5.393 
3.35918 0.453583 5.357 
3.35774 0.450027 5.315 
3.36228 0.447317 5.283 
3.41908 0.451551 5.333 
3.44084 0.451128 5.328 
3.45539 0.449773 5.312 
3.47176 0.448672 5.299 
3.48404 0.447063 5.28 
3.49283 0.445031 5.256 
3.50139 0.442999 5.232 
3.51175 0.441221 5.211 
3.52259 0.439528 5.191 
3.53666 0.438258 5.176 
3.55334 0.437326 5.165 
3.57199 0.436649 5.157 
3.59197 0.436141 5.151 
3.61329 0.435802 5.147 
3.63599 0.435633 5.145 
3.66009 0.435633 5.145 
3.68634 0.435887 5.148 
3.71478 0.436395 5.154 
3.74763 0.437411 5.166 
3.78351 0.438766 5.182 
3.82249 0.440459 5.202 
3.8646 0.442491 5.226 
3.90992 0.444862 5.254 
3.95625 0.447317 5.283 
4.00436 0.449942 5.314 
4.05352 0.452652 5.346 
4.10298 0.455361 5.378 
4.15274 0.458071 5.41 
4.20048 0.460526 5.439 
4.24616 0.462727 5.465 
4.28739 0.464421 5.485 
4.32488 0.465691 5.5 
4.35777 0.466453 5.509 
4.38914 0.467046 5.516 
4.42059 0.467638 5.523 
4.45451 0.468485 5.533 
4.49258 0.469755 5.548 
4.53486 0.471449 5.568 
4.5806 0.473481 5.592 
4.62822 0.475682 5.618 
4.67525 0.477799 5.643 
4.71835 0.479492 5.663 
4.75326 0.480339 5.673 
4.77815 0.48017 5.671 
4.79624 0.479323 5.661 
4.80913 0.477968 5.645 
4.82187 0.476614 5.629 
4.84049 0.475852 5.62 
4.86768 0.475936 5.621 
4.9062 0.477122 5.635 
4.95448 0.479238 5.66 
5.01268 0.482286 5.696 
5.07918 0.486097 5.741 
5.15143 0.490415 5.792 
5.22863 0.495156 5.848 
5.30636 0.499898 5.904 
5.38371 0.504555 5.959 
5.45976 0.509043 6.012 
5.53356 0.513276 6.062 
5.60508 0.517256 6.109 
5.67428 0.520981 6.153 
5.74296 0.524622 6.196 
5.80832 0.527924 6.235 
5.86936 0.530803 6.269 
5.92696 0.533343 6.299 
5.97916 0.535375 6.323 
6.02398 0.53673 6.339 
6.06419 0.537661 6.35 
6.09873 0.538085 6.355 
6.1314 0.538339 6.358 
6.16215 0.538423 6.359 
6.19194 0.538423 6.359 
6.22466 0.538677 6.362 
6.26135 0.53927 6.369 
6.30008 0.540032 6.378 
6.3369 0.540625 6.385 
6.36283 0.540286 6.381 
0 0 0 
0 0 0 
-0 0 0 
-0 0 0 
-0 0 0 
-0 0 0 
-0 0 0 
-0 0 0 
-4.11686 0.380924 4.263 
-4.12764 0.383783 4.295 
-4.10083 0.383157 4.288 
-4.09121 0.38414 4.299 
-4.07296 0.384319 4.301 
-4.06035 0.385034 4.309 
-4.04111 0.385123 4.31 
-4.02465 0.385481 4.314 
-4.01093 0.386106 4.321 
-4.00547 0.387536 4.337 
-3.98791 0.387804 4.34 
-3.96941 0.387983 4.342 
-3.93815 0.38691 4.33 
-3.90972 0.386106 4.321 
-3.88588 0.385749 4.317 
-3.86028 0.385213 4.311 
-3.83385 0.384587 4.304 
-3.80483 0.383694 4.294 
-3.77854 0.383068 4.287 
-3.75232 0.382443 4.28 
-3.72791 0.381996 4.275 
-3.70615 0.381817 4.273 
-3.68958 0.382175 4.277 
-3.67899 0.383157 4.288 
-3.64183 0.38137 4.268 
-3.66002 0.385391 4.313 
-3.65248 0.386732 4.328 
-3.64311 0.387893 4.341 
-3.62778 0.388429 4.347 
-3.60825 0.388519 4.348 
-3.58706 0.388429 4.347 
-3.55685 0.387357 4.335 
-3.53654 0.387357 4.335 
-3.49595 0.385123 4.31 
-3.47979 0.38557 4.315 
-3.46359 0.386017 4.32 
-3.44255 0.385927 4.319 
-3.45005 0.389055 4.354 
-3.43044 0.389144 4.355 
-3.44371 0.392987 4.398 
-3.43478 0.394327 4.413 
-3.43268 0.396471 4.437 
-3.40267 0.395399 4.425 
-3.35136 0.391825 4.385 
-3.32854 0.391557 4.382 
-3.30575 0.391289 4.379 
-3.29199 0.392093 4.388 
-3.27218 0.392182 4.389 
-3.25532 0.392629 4.394 
-0 0 0 
-0 0 0 
-0 0 0 
-3.1506 0.389859 4.363 
-3.20549 0.399241 4.468 
-3.18456 0.399241 4.468 
-3.16575 0.39951 4.471 
-3.13215 0.397901 4.453 
-3.11338 0.398169 4.456 
-3.09667 0.398705 4.462 
-3.0675 0.397633 4.45 
-3.05418 0.398616 4.461 
-3.04008 0.39951 4.471 
-3.02791 0.400671 4.484 
-3.01898 0.40228 4.502 
-3.00987 0.403888 4.52 
-2.99994 0.405407 4.537 
-2.98853 0.406747 4.552 
-2.97699 0.408088 4.567 
-2.96206 0.408981 4.577 
-2.96696 0.412645 4.618 
-2.94661 0.412824 4.62 
-2.92243 0.412466 4.616 
-2.89578 0.411751 4.608 
-2.86858 0.410947 4.599 
-2.83899 0.409785 4.586 
-2.81136 0.408892 4.576 
-2.78931 0.408803 4.575 
-2.76788 0.408803 4.575 
-2.74885 0.40916 4.579 
-2.73038 0.409607 4.584 
-2.71008 0.409785 4.586 
-2.69153 0.410232 4.591 
-2.70201 0.415147 4.646 
-2.68544 0.415951 4.655 
-2.66821 0.416666 4.663 
-2.67587 0.421312 4.715 
-2.65829 0.422027 4.723 
-2.6384 0.422385 4.727 
-2.6168 0.422474 4.728 
-2.59136 0.421938 4.722 
-2.56979 0.422027 4.723 
-2.54928 0.422295 4.726 
-2.52821 0.422474 4.728 
-2.50553 0.422385 4.727 
-2.47918 0.42167 4.719 
-2.45083 0.420597 4.707 
-2.41897 0.4189 4.688 
-2.39036 0.417738 4.675 
-2.36644 0.417381 4.671 
-2.34757 0.417917 4.677 
-2.33013 0.418721 4.686 
-2.3136 0.419704 4.697 
-2.29842 0.420955 4.711 
-2.28409 0.422385 4.727 
-2.27103 0.424082 4.746 
-2.25875 0.425959 4.767 
-2.2458 0.427746 4.787 
-2.23406 0.429801 4.81 
-2.22164 0.431767 4.832 
-2.20947 0.433822 4.855 
-2.19889 0.436235 4.882 
-2.19028 0.439094 4.914 
-2.18314 0.442311 4.95 
-2.17653 0.445706 4.988 
-2.17 0.449191 5.027 
-2.16182 0.452408 5.063 
-2.15246 0.455446 5.097 
-2.14028 0.457948 5.125 
-2.12494 0.459825 5.146 
-2.10695 0.461165 5.161 
-2.08641 0.461969 5.17 
-2.06418 0.462416 5.175 
-2.04112 0.462684 5.178 
-2.01687 0.462684 5.178 
-1.99222 0.462595 5.177 
-1.96683 0.462327 5.174 
-1.93996 0.461701 5.167 
-1.91168 0.460718 5.156 
-1.88313 0.459646 5.144 
-1.8547 0.458574 5.132 
-1.82745 0.457769 5.123 
-1.80169 0.457323 5.118 
-1.77736 0.457233 5.117 
-1.75442 0.457501 5.12 
-1.73348 0.458306 5.129 
-1.71378 0.459467 5.142 
-1.69528 0.460986 5.159 
-1.67727 0.462684 5.178 
-1.65875 0.464292 5.196 
-1.63976 0.465811 5.213 
-1.61937 0.466973 5.226 
-1.59763 0.467777 5.235 
-1.57491 0.468313 5.241 
-1.55213 0.46885 5.247 
-1.5293 0.469386 5.253 
-1.50612 0.469833 5.258 
-1.4829 0.470279 5.263 
-1.45963 0.470726 5.268 
-1.43659 0.471262 5.274 
-1.41375 0.471888 5.281 
-1.39112 0.472602 5.289 
-1.36841 0.473317 5.297 
-1.34562 0.474032 5.305 
-1.32251 0.474658 5.312 
-1.29885 0.475104 5.317 
-1.27514 0.475551 5.322 
-1.25138 0.475998 5.327 
-1.22758 0.476445 5.332 
-1.20395 0.476981 5.338 
-1.18005 0.477428 5.343 
-1.1561 0.477874 5.348 
-1.1321 0.478321 5.353 
-1.10785 0.478679 5.357 
-1.08397 0.479215 5.363 
-1.06023 0.47984 5.37 
-1.037 0.480734 5.38 
-1.01368 0.481627 5.39 
-0.990078 0.482432 5.399 
-0.965858 0.482968 5.405 
-0.941233 0.483325 5.409 
-0.916402 0.483593 5.412 
-0.891543 0.483861 5.415 
-0.866655 0.484129 5.418 
-0.842205 0.484666 5.424 
-0.817699 0.485202 5.43 
-0.793137 0.485738 5.436 
-0.768377 0.486185 5.441 
-0.743025 0.486274 5.442 
-0.717267 0.486095 5.44 
-0.691019 0.485559 5.434 
-0.664461 0.484755 5.425 
-0.637751 0.483772 5.414 
-0.610578 0.482342 5.398 
-0.58323 0.480645 5.379 
-0.555957 0.478857 5.359 
-0.528573 0.476802 5.336 
-0.501783 0.475104 5.317 
-0.475709 0.473943 5.304 
-0.450096 0.473139 5.295 
-0.424889 0.472692 5.29 
-0.399654 0.472156 5.284 
-0.374332 0.471441 5.276 
-0.348953 0.470547 5.266 
-0.323483 0.469386 5.253 
-0.297794 0.467688 5.234 
-0.272543 0.466437 5.22 
-0.247472 0.465275 5.207 
-0.222565 0.464203 5.195 
-0.197465 0.462416 5.175 
-0.172753 0.461165 5.161 
-0.147597 0.458127 5.127 
-0.12341 0.457501 5.12 
-0.0992494 0.456697 5.111 
-0.0743631 0.450978 5.047 
-0.0502172 0.446511 4.997 
-0.0267436 0.445438 4.985 
-0.00338036 0.444098 4.97 
0.0195139 0.435431 4.873 
0.0426464 0.438558 4.908 
0.0646089 0.431678 4.831 
0.0868613 0.429801 4.81 
0.108962 0.428103 4.791 
0.129212 0.420955 4.711 
0 0 0 
0 0 0 
0 0 0 
0 0 0 
0 0 0 
0 0 0 
0 0 0 
0 0 0 
0 0 0 
0 0 0 
0 0 0 
0 0 0 
0 0 0 
0 0 0 
0 0 0 
0 0 0 
0.331801 0.276913 3.099 
0.347659 0.277986 3.111 
0.364213 0.279505 3.128 
0.381773 0.281649 3.152 
0.398426 0.28299 3.167 
0.418352 0.286474 3.206 
0.429451 0.283883 3.177 
0.444753 0.284151 3.18 
0.461819 0.285492 3.195 
0.482755 0.289066 3.235 
0.50499 0.293176 3.281 
0.518457 0.292104 3.269 
0.537527 0.294159 3.292 
0.553117 0.294248 3.293 
0.567853 0.293891 3.289 
0.583083 0.293802 3.288 
0.598487 0.293802 3.288 
0.614263 0.29398 3.29 
0.630824 0.294517 3.296 
0.648029 0.295321 3.305 
0.66552 0.296214 3.315 
0.685364 0.298091 3.336 
0.726627 0.308992 3.458 
0 0 0 
0 0 0 
0 0 0 
0 0 0 
0.851066 0.325612 3.644 
0.854796 0.320608 3.588 
0.870875 0.32034 3.585 
0.883708 0.318911 3.569 
0.899419 0.318553 3.565 
0.915349 0.318285 3.562 
0.93125 0.318017 3.559 
0.946858 0.31766 3.555 
0.962698 0.317392 3.552 
0.978511 0.317124 3.549 
0.995137 0.317124 3.549 
1.01233 0.317302 3.551 
1.03042 0.317749 3.556 
1.04884 0.318285 3.562 
1.06762 0.318911 3.569 
1.08708 0.319715 3.578 
1.10692 0.320608 3.588 
1.12718 0.321591 3.599 
1.14785 0.322664 3.611 
1.16832 0.323646 3.622 
1.18856 0.32454 3.632 
1.2079 0.325166 3.639 
1.22629 0.325523 3.643 
1.24404 0.325702 3.645 
1.26111 0.325702 3.645 
1.27784 0.325612 3.644 
1.2942 0.325434 3.642 
1.31054 0.325255 3.64 
1.3265 0.324987 3.637 
1.34243 0.324719 3.634 
1.35833 0.324451 3.631 
1.37458 0.324272 3.629 
1.39082 0.324093 3.627 
1.40625 0.323736 3.623 
0 0 0 
0 0 0 
2.58293 0.573843 6.422 
2.62644 0.576791 6.455 
2.65627 0.576702 6.454 
2.68526 0.576434 6.451 
2.71548 0.576434 6.451 
2.74314 0.575898 6.445 
2.76989 0.575183 6.437 
2.79439 0.574021 6.424 
2.81657 0.572413 6.406 
2.83681 0.570447 6.384 
2.85549 0.568213 6.359 
2.87394 0.565979 6.334 
2.89306 0.563924 6.311 
2.91383 0.562226 6.292 
2.93676 0.560975 6.278 
2.95955 0.559724 6.264 
2.98174 0.558384 6.249 
3.00234 0.556776 6.231 
3.02034 0.55472 6.208 
3.03616 0.552308 6.181 
3.05222 0.549985 6.155 
3.06955 0.547929 6.132 
3.08665 0.545874 6.109 
3.09997 0.543194 6.079 
3.11044 0.540066 6.044 
3.1185 0.536581 6.005 
3.12305 0.53256 5.96 
3.12612 0.52836 5.913 
3.12715 0.523893 5.863 
3.13041 0.519872 5.818 
3.13649 0.516387 5.779 
3.14769 0.513796 5.75 
3.16248 0.51183 5.728 
3.17874 0.510132 5.709 
3.19369 0.508255 5.688 
3.20505 0.505843 5.661 
3.21159 0.502715 5.626 
3.21493 0.499141 5.586 
3.21614 0.495299 5.543 
3.2193 0.491814 5.504 
3.22799 0.489223 5.475 
3.24353 0.487704 5.458 
3.2685 0.487614 5.457 
3.30554 0.489312 5.476 
3.33423 0.489759 5.481 
3.36052 0.489848 5.482 
3.34667 0.484129 5.418 
3.36023 0.482432 5.399 
3.3573 0.478411 5.354 
3.35458 0.474479 5.31 
3.36673 0.472692 5.29 
3.371 0.469833 5.258 
3.44277 0.476355 5.331 
3.46645 0.476177 5.329 
3.477 0.474211 5.307 
3.488 0.472334 5.286 
3.49881 0.470458 5.265 
3.5054 0.468045 5.238 
3.51512 0.46608 5.216 
3.52598 0.464292 5.196 
3.53939 0.462863 5.18 
3.55609 0.46188 5.169 
3.57476 0.461165 5.161 
3.59476 0.460629 5.155 
3.6161 0.460271 5.151 
3.63952 0.460182 5.15 
3.66507 0.460361 5.152 
3.69207 0.460718 5.156 
3.72343 0.461612 5.166 
3.75706 0.462773 5.179 
3.7952 0.464471 5.198 
3.83718 0.466616 5.222 
3.88087 0.468939 5.248 
3.92704 0.47153 5.277 
3.97423 0.474211 5.307 
4.0232 0.47707 5.339 
4.07248 0.47993 5.371 
4.12281 0.482878 5.404 
4.17193 0.485648 5.435 
4.21978 0.48824 5.464 
4.26403 0.490384 5.488 
4.30381 0.491993 5.506 
4.33982 0.493154 5.519 
4.37201 0.493869 5.527 
4.40267 0.494405 5.533 
4.4342 0.495031 5.54 
4.4682 0.495924 5.55 
4.50554 0.497175 5.564 
4.54707 0.498873 5.583 
4.59125 0.500839 5.605 
4.63646 0.502894 5.628 
4.68105 0.50486 5.65 
4.72085 0.50629 5.666 
4.75326 0.506915 5.673 
4.7773 0.506647 5.67 
4.7937 0.505575 5.658 
4.80743 0.504234 5.643 
4.82273 0.503073 5.63 
4.84479 0.502626 5.625 
4.87634 0.503162 5.631 
4.91926 0.50486 5.65 
4.97112 0.507451 5.679 
5.03292 0.511025 5.719 
5.10218 0.515315 5.767 
5.17545 0.519961 5.819 
5.25188 0.524876 5.874 
5.32793 0.529701 5.928 
5.40088 0.534169 5.978 
5.47247 0.538458 6.026 
5.54269 0.542568 6.072 
5.61059 0.54641 6.115 
5.67889 0.550253 6.158 
5.74481 0.553827 6.198 
5.80925 0.557222 6.236 
5.86936 0.560171 6.269 
5.92601 0.562762 6.298 
5.97727 0.564818 6.321 
6.02303 0.566337 6.338 
6.06323 0.56732 6.349 
6.10065 0.568034 6.357 
6.13718 0.56866 6.364 
6.17378 0.569285 6.371 
6.20947 0.569822 6.377 
6.24815 0.570626 6.386 
6.28986 0.571698 6.398 
6.3307 0.572681 6.409 
6.36965 0.573485 6.418 
6.38676 0.572324 6.405 
0 0 0 
0 0 0 
-0 0 0 
-0 0 0 
-0 0 0 
-0 0 0 
-0 0 0 
-4.01262 0.388857 4.135 
-4.08113 0.397415 4.226 
-4.08824 0.400048 4.254 
-4.05971 0.399202 4.245 
-4.06076 0.40127 4.267 
-4.04077 0.40127 4.267 
-3.97272 0.396474 4.216 
-3.94922 0.396098 4.212 
-3.92576 0.395722 4.208 
-3.9079 0.39591 4.21 
-3.8928 0.39638 4.215 
-3.88132 0.397227 4.224 
-3.86884 0.397979 4.232 
-3.9145 0.40475 4.304 
-3.88167 0.403433 4.29 
-3.85888 0.403151 4.287 
-3.83432 0.402681 4.282 
-3.80624 0.401835 4.273 
-3.77293 0.400424 4.258 
-3.74241 0.399296 4.246 
-3.71112 0.398073 4.233 
-3.68606 0.397509 4.227 
-3.66018 0.39685 4.22 
-3.65508 0.398449 4.237 
-3.6378 0.398731 4.24 
-3.60343 0.397133 4.223 
-3.60487 0.399484 4.248 
-3.62125 0.403527 4.291 
-3.61458 0.405032 4.307 
-3.60191 0.405878 4.316 
-3.58418 0.40616 4.319 
-3.56313 0.406066 4.318 
-3.53798 0.405502 4.312 
-3.49085 0.402399 4.279 
-3.46919 0.402211 4.277 
-3.44915 0.402211 4.277 
-3.4227 0.401458 4.269 
-3.41864 0.403339 4.289 
-3.38983 0.402305 4.278 
-3.36191 0.401364 4.268 
-3.35132 0.402493 4.28 
-0 0 0 
-0 0 0 
-0 0 0 
-0 0 0 
-0 0 0 
-0 0 0 
-0 0 0 
-0 0 0 
-0 0 0 
-0 0 0 
-0 0 0 
-0 0 0 
-0 0 0 
-3.16747 0.415188 4.415 
-3.1475 0.415282 4.416 
-3.12893 0.415565 4.419 
-3.11175 0.416035 4.424 
-3.08054 0.414624 4.409 
-3.06683 0.415565 4.419 
-3.0544 0.416693 4.431 
-3.04323 0.41801 4.445 
-3.03328 0.419514 4.461 
-3.02656 0.421489 4.482 
-3.02032 0.423558 4.504 
-3.02386 0.427037 4.541 
-3.01713 0.429106 4.563 
-3.00889 0.430987 4.583 
-2.9985 0.432586 4.6 
-2.98342 0.433526 4.61 
-2.96118 0.433432 4.609 
-2.93831 0.433244 4.607 
-2.92939 0.435125 4.627 
-2.91149 0.435689 4.633 
-2.86795 0.432398 4.598 
-2.82784 0.429577 4.568 
-2.78801 0.426755 4.538 
-2.76492 0.426473 4.535 
-2.74912 0.42732 4.544 
-2.73504 0.428448 4.556 
-2.72025 0.429483 4.567 
-2.72249 0.433244 4.607 
-2.70501 0.433902 4.614 
-2.69096 0.435125 4.627 
-2.67851 0.43663 4.643 
-2.66821 0.43851 4.663 
-2.66169 0.441049 4.69 
-2.64647 0.442178 4.702 
-2.62947 0.443024 4.711 
-2.61016 0.443494 4.716 
-2.58862 0.443589 4.717 
-2.56924 0.444059 4.722 
-2.55036 0.444623 4.728 
-2.53088 0.445093 4.733 
-2.50977 0.445281 4.735 
-2.48496 0.444811 4.73 
-2.4576 0.443871 4.72 
-2.42774 0.44246 4.705 
-2.40008 0.441426 4.694 
-2.37606 0.441049 4.69 
-2.3561 0.441426 4.694 
-2.3366 0.441896 4.699 
-2.31951 0.442836 4.709 
-2.30233 0.443777 4.719 
-2.28698 0.445093 4.733 
-2.27199 0.446504 4.748 
-2.2578 0.448103 4.765 
-2.24392 0.449795 4.783 
-2.23034 0.451582 4.802 
-2.2175 0.453557 4.823 
-2.20583 0.455814 4.847 
-2.19483 0.458259 4.873 
-2.18671 0.461362 4.906 
-2.18093 0.46503 4.945 
-2.17478 0.468697 4.984 
-2.16957 0.472647 5.026 
-2.16225 0.476221 5.064 
-2.15415 0.4797 5.101 
-2.14195 0.482333 5.129 
-2.12742 0.484496 5.152 
-2.109 0.485813 5.166 
-2.08883 0.486753 5.176 
-2.06658 0.487223 5.181 
-2.04309 0.487411 5.183 
-2.0192 0.487505 5.184 
-1.99453 0.487411 5.183 
-1.96911 0.487129 5.18 
-1.94259 0.486565 5.174 
-1.91502 0.485719 5.165 
-1.88679 0.484684 5.154 
-1.85867 0.48365 5.143 
-1.83173 0.482897 5.135 
-1.80626 0.482521 5.131 
-1.78188 0.482427 5.13 
-1.75922 0.482803 5.134 
-1.73787 0.483556 5.142 
-1.71778 0.484684 5.154 
-1.69824 0.486001 5.168 
-1.67921 0.487505 5.184 
-1.66003 0.48901 5.2 
-1.63976 0.490233 5.213 
-1.61875 0.491267 5.224 
-1.59672 0.492019 5.232 
-1.57371 0.49249 5.237 
-1.55065 0.49296 5.242 
-1.52726 0.493336 5.246 
-1.50383 0.493712 5.25 
-1.48008 0.493994 5.253 
-1.45658 0.49437 5.257 
-1.43332 0.494841 5.262 
-1.41027 0.495405 5.268 
-1.38744 0.496063 5.275 
-1.36479 0.496815 5.283 
-1.34182 0.497474 5.29 
-1.31878 0.498132 5.297 
-1.29518 0.498602 5.302 
-1.27131 0.498978 5.306 
-1.24762 0.499449 5.311 
-1.22389 0.499919 5.316 
-1.20012 0.500389 5.321 
-1.17652 0.500953 5.327 
-1.15286 0.501517 5.333 
-1.12914 0.502082 5.339 
-1.10558 0.50274 5.346 
-1.08215 0.503492 5.354 
-1.05885 0.504339 5.363 
-1.03584 0.505373 5.374 
-1.01293 0.506502 5.386 
-0.989345 0.507348 5.395 
-0.965322 0.508006 5.402 
-0.940885 0.508476 5.407 
-0.916233 0.508853 5.411 
-0.891213 0.509041 5.413 
-0.866335 0.509323 5.416 
-0.841739 0.509793 5.421 
-0.817247 0.510357 5.427 
-0.792553 0.510827 5.432 
-0.767671 0.511204 5.436 
-0.742478 0.511392 5.438 
-0.716871 0.511298 5.437 
-0.691019 0.511016 5.434 
-0.664828 0.510451 5.428 
-0.638693 0.509887 5.422 
-0.611935 0.508759 5.41 
-0.585074 0.507442 5.396 
-0.558031 0.505843 5.379 
-0.530653 0.503774 5.357 
-0.503859 0.502082 5.339 
-0.477502 0.500671 5.324 
-0.451626 0.499637 5.313 
-0.426174 0.498978 5.306 
-0.400788 0.49832 5.299 
-0.375467 0.497662 5.292 
-0.35008 0.496815 5.283 
-0.324407 0.495405 5.268 
-0.298192 0.492866 5.241 
-0.272909 0.491549 5.227 
-0.248185 0.491079 5.222 
-0.223464 0.490515 5.216 
-0.195862 0.482709 5.133 
-0.171447 0.481675 5.122 
-0.146531 0.478666 5.09 
-0.122132 0.476503 5.067 
-0.0970356 0.46992 4.997 
-0.0735527 0.46945 4.992 
-0.0484384 0.453275 4.82 
-0.0258316 0.452805 4.815 
-0 0 0 
0 0 0 
0 0 0 
0 0 0 
0 0 0 
0 0 0 
0 0 0 
0 0 0 
0 0 0 
0 0 0 
0 0 0 
0 0 0 
0 0 0 
0 0 0 
0 0 0 
0 0 0 
0 0 0 
0 0 0 
0.252102 0.283438 3.014 
0.266663 0.283908 3.019 
0.281829 0.284942 3.03 
0.300909 0.289644 3.08 
0.31759 0.291713 3.102 
0.334905 0.294158 3.128 
0.351682 0.295945 3.147 
0.368637 0.297732 3.166 
0.386134 0.299801 3.188 
0.403081 0.301305 3.204 
0.420048 0.302716 3.219 
0.43702 0.304033 3.233 
0.446711 0.300365 3.194 
0.464131 0.301964 3.211 
0 0 0 
0 0 0 
0 0 0 
0.544058 0.313343 3.332 
0.558324 0.31259 3.324 
0.571824 0.311462 3.312 
0.58663 0.311086 3.308 
0.601763 0.310898 3.306 
0.617624 0.311086 3.308 
0.634078 0.311556 3.313 
0.651363 0.312402 3.322 
0.669133 0.313437 3.333 
0.68824 0.315035 3.35 
0 0 0 
0 0 0 
0 0 0 
0 0 0 
0 0 0 
0.900813 0.362714 3.857 
0.854319 0.337229 3.586 
0.868932 0.336383 3.577 
0.883461 0.335536 3.568 
0.898914 0.335066 3.563 
0.914578 0.33469 3.559 
0.930204 0.334314 3.555 
0.946325 0.334126 3.553 
0.962427 0.333937 3.551 
0.979063 0.333937 3.551 
0.996259 0.334126 3.553 
1.01404 0.334502 3.557 
1.03216 0.334972 3.562 
1.0509 0.33563 3.569 
1.06972 0.336288 3.576 
1.0892 0.337135 3.585 
1.10877 0.337981 3.594 
1.12906 0.339016 3.605 
1.14944 0.34005 3.616 
1.16993 0.341085 3.627 
1.18987 0.341931 3.636 
1.20922 0.342589 3.643 
1.22764 0.342965 3.647 
1.2454 0.343153 3.649 
1.2625 0.343153 3.649 
1.27959 0.343153 3.649 
1.29598 0.342965 3.647 
1.31234 0.342777 3.645 
1.32869 0.342589 3.643 
1.34464 0.342307 3.64 
1.36057 0.342025 3.637 
1.37723 0.341931 3.636 
1.3935 0.341743 3.634 
1.4082 0.341179 3.628 
0 0 0 
0 0 0 
2.57489 0.602047 6.402 
2.61668 0.604774 6.431 
2.64557 0.604492 6.428 
2.67402 0.604115 6.424 
2.70453 0.60421 6.425 
2.73208 0.603645 6.419 
2.75914 0.602987 6.412 
2.78439 0.601953 6.401 
2.80734 0.600448 6.385 
2.82837 0.598567 6.365 
2.8483 0.596498 6.343 
2.86804 0.594429 6.321 
2.88802 0.592454 6.3 
2.91013 0.59095 6.284 
2.93302 0.589633 6.27 
2.95672 0.588505 6.258 
2.97888 0.587094 6.243 
2.99945 0.585401 6.225 
3.01694 0.583144 6.201 
3.03223 0.580511 6.173 
3.04677 0.577784 6.144 
3.06254 0.575339 6.118 
3.07806 0.572894 6.092 
3.09232 0.570261 6.064 
3.10426 0.567252 6.032 
3.11382 0.563866 5.996 
3.12043 0.560011 5.955 
3.12453 0.555779 5.91 
3.12662 0.551265 5.862 
3.12987 0.547033 5.817 
3.13595 0.543365 5.778 
3.14605 0.54045 5.747 
3.15972 0.538193 5.723 
3.17484 0.536218 5.702 
3.1892 0.534149 5.68 
3.19996 0.531516 5.652 
3.20588 0.528131 5.616 
3.20744 0.524087 5.573 
3.20744 0.519855 5.528 
3.20819 0.515812 5.485 
3.21502 0.512802 5.453 
3.22927 0.511016 5.434 
3.25533 0.51111 5.435 
3.33994 0.520326 5.533 
3.36404 0.520043 5.53 
3.38443 0.519197 5.521 
3.34358 0.509041 5.413 
0 0 0 
0 0 0 
0 0 0 
0 0 0 
0 0 0 
3.38853 0.49343 5.247 
3.47165 0.501894 5.337 
3.48224 0.499825 5.315 
3.49526 0.498132 5.297 
3.50612 0.496157 5.276 
3.50942 0.493148 5.244 
3.51849 0.490985 5.221 
3.52937 0.489104 5.201 
3.54281 0.487599 5.185 
3.55953 0.486565 5.174 
3.57823 0.485813 5.166 
3.59894 0.485343 5.161 
3.62101 0.48506 5.158 
3.64517 0.48506 5.158 
3.67147 0.485343 5.161 
3.69995 0.485907 5.167 
3.7328 0.487035 5.179 
3.76939 0.488634 5.196 
3.8098 0.490703 5.218 
3.85408 0.493242 5.245 
3.90084 0.496063 5.275 
3.94936 0.499072 5.307 
3.99969 0.50227 5.341 
4.04958 0.505373 5.374 
4.09977 0.508476 5.407 
4.14952 0.511486 5.439 
4.19802 0.514307 5.469 
4.24372 0.516752 5.495 
4.28578 0.518727 5.516 
4.32335 0.520137 5.531 
4.35634 0.520984 5.54 
4.38704 0.521548 5.546 
4.41699 0.522018 5.551 
4.4478 0.522582 5.557 
4.48108 0.523429 5.566 
4.51849 0.524745 5.58 
4.55848 0.526344 5.597 
4.60026 0.528131 5.616 
4.64305 0.530012 5.636 
4.68436 0.531704 5.654 
4.72168 0.532927 5.667 
4.75074 0.533209 5.67 
4.77309 0.532739 5.665 
4.79031 0.531704 5.654 
4.80487 0.530388 5.64 
4.82358 0.529541 5.631 
4.84996 0.529541 5.631 
4.88673 0.53067 5.643 
4.93319 0.532833 5.666 
4.9895 0.53603 5.7 
5.05404 0.540074 5.743 
5.12518 0.544776 5.793 
5.20035 0.549854 5.847 
5.27602 0.554932 5.901 
5.3495 0.559728 5.952 
5.41985 0.564148 5.999 
5.487 0.568192 6.042 
5.55182 0.571954 6.082 
5.61609 0.575621 6.121 
5.67981 0.579195 6.159 
5.74296 0.582674 6.196 
5.80459 0.585966 6.231 
5.86374 0.588975 6.263 
5.91943 0.591608 6.291 
5.97065 0.593771 6.314 
6.01828 0.595558 6.333 
6.06132 0.596874 6.347 
6.10353 0.598097 6.36 
6.14586 0.599319 6.373 
6.19025 0.60073 6.388 
6.23381 0.602047 6.402 
6.27848 0.603457 6.417 
6.32623 0.60515 6.435 
6.36922 0.606372 6.448 
6.40737 0.607125 6.456 
6.41268 0.604774 6.431 
0 0 0 
0 0 0 
-0 0 0 
-0 0 0 
-0 0 0 
-0 0 0 
-0 0 0 
-3.99127 0.406056 4.113 
-4.04154 0.413164 4.185 
-4.03923 0.414941 4.203 
-4.00615 0.413559 4.189 
-3.97891 0.412769 4.181 
-3.94796 0.411585 4.169 
-3.92278 0.410992 4.163 
-3.90421 0.411091 4.164 
-3.88377 0.410992 4.163 
-3.87263 0.411881 4.172 
-3.86509 0.413164 4.185 
-3.85835 0.414547 4.199 
-3.84873 0.415632 4.21 
-3.83811 0.41662 4.22 
-3.86358 0.421556 4.27 
-3.84267 0.421457 4.269 
-3.81909 0.421062 4.265 
-3.79021 0.420075 4.255 
-3.75255 0.418101 4.235 
-3.72302 0.417015 4.224 
-3.69183 0.415731 4.211 
-3.65292 0.413559 4.189 
-3.62289 0.412375 4.177 
-3.59555 0.411486 4.168 
-3.59834 0.414053 4.194 
-3.58381 0.414645 4.2 
-3.57177 0.415534 4.209 
-3.61028 0.422346 4.278 
-3.60451 0.424024 4.295 
-3.59273 0.425011 4.305 
-3.57506 0.425308 4.308 
-3.53259 0.422642 4.281 
-3.50187 0.421359 4.268 
-3.47535 0.420569 4.26 
-3.4554 0.420569 4.26 
-3.4306 0.419976 4.254 
-3.40586 0.419384 4.248 
-3.34212 0.413954 4.193 
-0 0 0 
-0 0 0 
-0 0 0 
-0 0 0 
-0 0 0 
-0 0 0 
-0 0 0 
-0 0 0 
-0 0 0 
-0 0 0 
-0 0 0 
-0 0 0 
-0 0 0 
-0 0 0 
-0 0 0 
-0 0 0 
-3.14307 0.432514 4.381 
-3.12683 0.433107 4.387 
-3.10911 0.433502 4.391 
-3.08713 0.433304 4.389 
-3.05539 0.431725 4.373 
-3.04393 0.433008 4.386 
-3.03441 0.434588 4.402 
-3.02679 0.436463 4.421 
-3.02104 0.438635 4.443 
-3.01779 0.441202 4.469 
-3.0163 0.444065 4.498 
-3.02253 0.448113 4.539 
-3.01978 0.450877 4.567 
-3.01545 0.453444 4.593 
-3.00762 0.455517 4.614 
-2.99442 0.456801 4.627 
-2.9766 0.457393 4.633 
-2.95936 0.458084 4.64 
-2.93003 0.4569 4.628 
-2.89515 0.454826 4.607 
-2.85423 0.451766 4.576 
-2.82041 0.449791 4.556 
-2.79047 0.448409 4.542 
-2.76736 0.448113 4.539 
-2.75033 0.448804 4.546 
-2.73624 0.449989 4.558 
-2.72323 0.451371 4.572 
-2.70772 0.452358 4.582 
-2.69094 0.453148 4.59 
-2.677 0.454431 4.603 
-2.66409 0.455912 4.618 
-2.65333 0.457788 4.637 
-2.6458 0.460256 4.662 
-2.63352 0.461935 4.679 
-2.61942 0.463317 4.693 
-2.60407 0.464501 4.705 
-2.58697 0.46539 4.714 
-2.57142 0.466575 4.726 
-2.55575 0.467759 4.738 
-2.5389 0.468747 4.748 
-2.51931 0.46924 4.753 
-2.49599 0.469043 4.751 
-2.47009 0.468352 4.744 
-2.44116 0.467068 4.731 
-2.41388 0.466081 4.721 
-2.38923 0.465587 4.716 
-2.36815 0.465785 4.718 
-2.34704 0.465982 4.72 
-2.32788 0.466575 4.726 
-2.30916 0.467266 4.733 
-2.29182 0.468253 4.743 
-2.27534 0.469438 4.755 
-2.2597 0.47082 4.769 
-2.24486 0.472399 4.785 
-2.23081 0.474176 4.803 
-2.2175 0.476151 4.823 
-2.20583 0.47852 4.847 
-2.19438 0.480988 4.872 
-2.18627 0.484246 4.905 
-2.18137 0.488294 4.946 
-2.17522 0.492144 4.985 
-2.17172 0.496686 5.031 
-2.16481 0.500536 5.07 
-2.15753 0.504386 5.109 
-2.14529 0.507151 5.137 
-2.12989 0.509224 5.158 
-2.11144 0.510606 5.172 
-2.09085 0.511495 5.181 
-2.06857 0.511988 5.186 
-2.04546 0.512284 5.189 
-2.02154 0.512383 5.19 
-1.99723 0.512383 5.19 
-1.97177 0.512087 5.187 
-1.9456 0.511593 5.182 
-1.91872 0.510902 5.175 
-1.89082 0.509915 5.165 
-1.86337 0.509026 5.156 
-1.83672 0.508335 5.149 
-1.81119 0.50794 5.145 
-1.78744 0.508039 5.146 
-1.7647 0.508434 5.15 
-1.74328 0.509224 5.158 
-1.72245 0.510211 5.168 
-1.70185 0.511297 5.179 
-1.68148 0.512482 5.191 
-1.66099 0.513666 5.203 
-1.63976 0.514654 5.213 
-1.61782 0.515444 5.221 
-1.59489 0.515937 5.226 
-1.57131 0.516233 5.229 
-1.5477 0.51653 5.232 
-1.52377 0.516727 5.234 
-1.50011 0.517023 5.237 
-1.47614 0.517221 5.239 
-1.45215 0.517418 5.241 
-1.42869 0.517813 5.245 
-1.40545 0.518307 5.25 
-1.38244 0.518899 5.256 
-1.35962 0.51959 5.263 
-1.337 0.52038 5.271 
-1.3138 0.520972 5.277 
-1.2903 0.521466 5.282 
-1.26675 0.521959 5.287 
-1.24292 0.522354 5.291 
-1.21906 0.522749 5.295 
-1.19538 0.523243 5.3 
-1.17166 0.523736 5.305 
-1.1481 0.524329 5.311 
-1.1247 0.52502 5.318 
-1.10165 0.525908 5.327 
-1.07851 0.526797 5.336 
-1.05589 0.527982 5.348 
-1.03315 0.529166 5.36 
-1.01048 0.53045 5.373 
-0.987327 0.531536 5.384 
-0.963535 0.532326 5.392 
-0.939145 0.532819 5.397 
-0.915047 0.53351 5.404 
-0.890225 0.533806 5.407 
-0.865535 0.534201 5.411 
-0.840963 0.534695 5.416 
-0.816645 0.535386 5.423 
-0.792116 0.535978 5.429 
-0.767389 0.536472 5.434 
