ply
format ascii 1.0
comment VTK generated PLY File
obj_info vtkPolyData points and polygons : vtk4.0
element vertex 2191
property float x
property float y
property float z
element face 0
property list uchar int vertex_indices
end_header
1.77918 2.76346 6.14 
1.81442 2.77336 6.162 
1.85017 2.78371 6.185 
1.88431 2.79136 6.202 
1.91768 2.79766 6.216 
1.94899 2.80081 6.223 
1.97815 2.80081 6.223 
2.0073 2.80081 6.223 
2.03154 2.79406 6.208 
2.05465 2.78596 6.19 
2.07119 2.76931 6.153 
2.09183 2.75851 6.129 
2.10116 2.7333 6.073 
2.10892 2.70675 6.014 
2.11329 2.67659 5.947 
2.0767 2.59603 5.768 
2.05959 2.54157 5.647 
2.22716 2.7135 6.029 
0 0 0 
0 0 0 
0 0 0 
0 0 0 
0 0 0 
2.41133 2.73015 6.066 
2.44015 2.7306 6.067 
2.48037 2.74365 6.096 
2.49617 2.7297 6.065 
2.51251 2.71665 6.036 
2.53363 2.709 6.019 
2.55587 2.7027 6.005 
2.58099 2.69955 5.998 
2.6117 2.70225 6.004 
2.64598 2.70855 6.018 
2.68573 2.72025 6.044 
2.7329 2.73915 6.086 
2.77865 2.75626 6.124 
2.82522 2.77381 6.163 
2.86891 2.78821 6.195 
2.91103 2.80081 6.223 
2.95294 2.81296 6.25 
2.99319 2.82332 6.273 
3.0327 2.83277 6.294 
3.07094 2.84087 6.312 
3.10788 2.84762 6.327 
3.14496 2.85437 6.342 
3.18167 2.86067 6.356 
3.21903 2.86742 6.371 
3.25907 2.87643 6.391 
3.29725 2.88363 6.407 
3.33401 2.88948 6.42 
3.36776 2.89263 6.427 
3.40051 2.89488 6.432 
3.42904 2.89353 6.429 
3.45647 2.89128 6.424 
3.48222 2.88768 6.416 
3.50461 2.88138 6.402 
3.52743 2.87552 6.389 
3.55235 2.87147 6.38 
3.57887 2.86877 6.374 
3.61156 2.87102 6.379 
3.64544 2.87417 6.386 
3.68283 2.88003 6.399 
3.72209 2.88723 6.415 
3.76033 2.89353 6.429 
3.79458 2.89668 6.436 
3.82414 2.89623 6.435 
3.85009 2.89308 6.428 
3.87235 2.88723 6.415 
3.89511 2.88183 6.403 
3.91897 2.87733 6.393 
3.94707 2.87598 6.39 
3.98012 2.87823 6.395 
4.01948 2.88498 6.41 
4.06404 2.89533 6.433 
4.112 2.90793 6.461 
4.16085 2.92098 6.49 
4.20934 2.93358 6.518 
4.25614 2.94484 6.543 
4.29989 2.95384 6.563 
4.33922 2.95969 6.576 
4.37467 2.96284 6.583 
4.40417 2.96194 6.581 
4.43029 2.95879 6.574 
4.4543 2.95429 6.564 
4.47822 2.94979 6.554 
4.50342 2.94619 6.546 
4.52923 2.94304 6.539 
4.55568 2.94034 6.533 
4.58278 2.93809 6.528 
4.61053 2.93629 6.524 
4.64252 2.93719 6.526 
4.67953 2.94124 6.535 
4.72312 2.94934 6.553 
4.77268 2.96104 6.579 
4.8254 2.97454 6.609 
4.87915 2.98849 6.64 
4.93022 3.00065 6.667 
4.97708 3.0101 6.688 
5.02114 3.01775 6.705 
5.06084 3.0227 6.716 
5.09685 3.0254 6.722 
5.13063 3.02675 6.725 
5.15983 3.0254 6.722 
5.18669 3.0227 6.716 
5.2096 3.01775 6.705 
5.23085 3.0119 6.692 
5.25119 3.0056 6.678 
5.27378 3.00065 6.667 
5.30262 2.9993 6.664 
5.33784 3.00155 6.669 
5.37955 3.0074 6.682 
5.42462 3.01505 6.699 
5.4674 3.02135 6.713 
5.50622 3.0254 6.722 
5.53771 3.0254 6.722 
5.56341 3.02225 6.715 
5.58736 3.0182 6.706 
5.61627 3.01685 6.703 
5.65188 3.0191 6.708 
5.69771 3.02675 6.725 
5.75051 3.038 6.75 
5.80869 3.05195 6.781 
5.86888 3.06681 6.814 
5.92851 3.08121 6.846 
5.98496 3.09381 6.874 
6.03729 3.10416 6.897 
6.08456 3.11181 6.914 
6.12315 3.11496 6.921 
6.15468 3.11451 6.92 
6.17905 3.11046 6.911 
6.19974 3.10461 6.898 
6.22122 3.09921 6.886 
6.2453 3.09516 6.877 
6.27478 3.09381 6.874 
6.3079 3.09426 6.875 
6.34103 3.09471 6.876 
6.37509 3.09561 6.878 
6.40825 3.09606 6.879 
6.44047 3.09606 6.879 
6.47082 3.09516 6.877 
6.5002 3.09381 6.874 
6.52765 3.09156 6.869 
6.55505 3.08931 6.864 
6.58241 3.08706 6.859 
6.61068 3.08526 6.855 
6.63989 3.08391 6.852 
6.66907 3.08256 6.849 
6.70017 3.08211 6.848 
6.73127 3.08166 6.847 
6.76038 3.08031 6.844 
6.78847 3.07851 6.84 
6.78661 3.06321 6.806 
0 0 0 
0 0 0 
-0 0 0 
-0 0 0 
-0 0 0 
-0 0 0 
-0 0 0 
-0 0 0 
-0 0 0 
-0 0 0 
-3.73072 1.77401 3.901 
-3.72101 1.77811 3.91 
-3.66292 1.75901 3.868 
-3.64009 1.75673 3.863 
-3.62106 1.75628 3.862 
-3.60856 1.75901 3.868 
-3.60251 1.76492 3.881 
-3.60649 1.77583 3.905 
-3.60106 1.7822 3.919 
-3.61653 1.79903 3.956 
-3.60618 1.80312 3.965 
-3.59213 1.80539 3.97 
-3.57803 1.80767 3.975 
-3.55493 1.80539 3.97 
-3.53901 1.80676 3.973 
-3.52394 1.80858 3.977 
-3.50267 1.80721 3.974 
-3.47704 1.80357 3.966 
-3.45497 1.80176 3.962 
-3.43467 1.80085 3.96 
-3.46271 1.8254 4.014 
-3.401 1.80266 3.964 
-3.37305 1.79766 3.953 
-3.35113 1.79584 3.949 
-3.33601 1.79766 3.953 
-3.31665 1.79721 3.952 
-3.30565 1.8013 3.961 
-3.29041 1.80312 3.965 
-3.28174 1.80858 3.977 
-3.26557 1.80994 3.98 
-3.24529 1.80903 3.978 
-3.22666 1.80903 3.978 
-3.21044 1.8104 3.981 
-3.19179 1.8104 3.981 
-3.17713 1.81267 3.986 
-3.14498 1.80494 3.969 
-3.14057 1.81312 3.987 
-3.071 1.78356 3.922 
-0 0 0 
-0 0 0 
-0 0 0 
-0 0 0 
-0 0 0 
-0 0 0 
-0 0 0 
-0 0 0 
-0 0 0 
-2.93217 1.81131 3.983 
-2.91278 1.81085 3.982 
-2.8854 1.80539 3.97 
-2.80904 1.76901 3.89 
-2.78077 1.76265 3.876 
-2.75263 1.75628 3.862 
-2.73029 1.75355 3.856 
-2.67073 1.72672 3.797 
-0 0 0 
-0 0 0 
-0 0 0 
-0 0 0 
-0 0 0 
-0 0 0 
-0 0 0 
-2.72553 1.86133 4.093 
-2.66933 1.83586 4.037 
-2.66683 1.84723 4.062 
-2.69083 1.87725 4.128 
-2.67084 1.87679 4.127 
-2.66821 1.88861 4.153 
-2.64748 1.8877 4.151 
-2.62234 1.88361 4.142 
-2.59414 1.87725 4.128 
-2.56482 1.86997 4.112 
-2.53627 1.86315 4.097 
-2.50909 1.85724 4.084 
-2.48386 1.85269 4.074 
-2.45993 1.84905 4.066 
-2.43728 1.84632 4.06 
-2.41469 1.84359 4.054 
-2.39334 1.84177 4.05 
-2.35912 1.82995 4.024 
-2.36586 1.84996 4.068 
-2.36007 1.86042 4.091 
-2.33289 1.85405 4.077 
-2.30471 1.84678 4.061 
-2.27274 1.83632 4.038 
-2.24545 1.8295 4.023 
-2.21941 1.82358 4.01 
-2.19459 1.81858 3.999 
-2.18565 1.82677 4.017 
-0 0 0 
-0 0 0 
-0 0 0 
-0 0 0 
-0 0 0 
-0 0 0 
-1.47461 1.31152 2.884 
-1.46363 1.3138 2.889 
-1.4506 1.31425 2.89 
-1.44104 1.31789 2.898 
-0 0 0 
-0 0 0 
-0 0 0 
-0 0 0 
-0 0 0 
-1.85547 1.79857 3.955 
-1.84298 1.80448 3.968 
-1.82715 1.80721 3.974 
-1.81172 1.8104 3.981 
-1.79352 1.81085 3.982 
-1.77353 1.80949 3.979 
-1.7518 1.8063 3.972 
-1.73058 1.80357 3.966 
-1.70984 1.8013 3.961 
-1.68915 1.79903 3.956 
-1.66977 1.79812 3.954 
-1.6525 1.79948 3.957 
-1.63685 1.80266 3.964 
-1.62237 1.80721 3.974 
-1.609 1.81312 3.987 
-1.59511 1.81858 3.999 
-1.57913 1.82176 4.006 
-1.55997 1.82131 4.005 
-1.5389 1.81858 3.999 
-1.51409 1.81131 3.983 
-1.4898 1.80448 3.968 
-1.44414 1.77129 3.895 
-1.42773 1.77356 3.9 
-1.41126 1.77583 3.905 
-1.38976 1.77174 3.896 
-1.37291 1.77356 3.9 
-0 0 0 
-1.26887 1.68397 3.703 
-1.21773 1.6385 3.603 
-1.17352 1.60121 3.521 
-1.12843 1.56164 3.434 
-1.10684 1.55391 3.417 
-1.08285 1.54254 3.392 
-1.05469 1.52481 3.353 
-1.02938 1.51071 3.322 
-1.00069 1.49115 3.279 
-0.98323 1.48797 3.272 
-0.968198 1.48843 3.273 
-0.957523 1.4957 3.289 
-0.942402 1.49616 3.29 
-0.927271 1.49661 3.291 
-0.912131 1.49707 3.292 
-0.895892 1.4957 3.289 
-0.881287 1.49707 3.292 
-0.866654 1.49843 3.295 
-0.85096 1.49798 3.294 
-0.836289 1.49934 3.297 
-0.822089 1.50161 3.302 
-0.80833 1.5048 3.309 
-0.794745 1.50844 3.317 
-0.781086 1.51207 3.325 
-0.767581 1.51617 3.334 
-0.753993 1.52026 3.343 
-0.740761 1.52526 3.354 
-0.727859 1.53117 3.367 
-0.715258 1.53799 3.382 
-0.703344 1.54664 3.401 
-0.691454 1.55573 3.421 
-0.679376 1.56483 3.441 
-0.666919 1.57347 3.46 
-0.654095 1.58165 3.478 
-0.641103 1.58984 3.496 
-0.627227 1.5962 3.51 
-0.612698 1.60121 3.521 
-0.597558 1.60484 3.529 
-0.581684 1.60666 3.533 
-0.565453 1.60757 3.535 
-0.549048 1.60803 3.536 
-0.532935 1.60939 3.539 
-0.51694 1.61121 3.543 
-0.501613 1.6153 3.552 
-0.486748 1.62122 3.565 
-0.472421 1.6294 3.583 
-0.458306 1.63895 3.604 
-0.444362 1.64987 3.628 
-0.430311 1.66123 3.653 
-0.415686 1.67124 3.675 
-0.400422 1.67942 3.693 
-0.38447 1.68534 3.706 
-0.367901 1.68897 3.714 
-0.351163 1.69216 3.721 
-0.334359 1.69534 3.728 
-0.31783 1.70034 3.739 
-0.301278 1.7058 3.751 
-0.284689 1.71171 3.764 
-0.267694 1.71581 3.773 
-0.250085 1.71626 3.774 
-0.232406 1.71626 3.774 
-0.214555 1.7149 3.771 
-0.196732 1.71353 3.768 
-0.180126 1.72354 3.79 
-0.162586 1.72581 3.795 
-0.144502 1.72217 3.787 
-0.127364 1.73036 3.805 
-0.108387 1.71217 3.765 
-0.0909182 1.71535 3.772 
-0.073403 1.71899 3.78 
-0.0562844 1.73718 3.82 
-0.0384794 1.74127 3.829 
-0.0205633 1.74309 3.833 
-0.00261995 1.75173 3.852 
0.0155255 1.7631 3.877 
0.0339312 1.77583 3.905 
0.0526527 1.79039 3.937 
0.071656 1.80448 3.968 
0.0908816 1.81722 3.996 
0.11026 1.82813 4.02 
0.12967 1.83632 4.038 
0.149065 1.84223 4.051 
0.168374 1.84587 4.059 
0.187528 1.84723 4.062 
0.206506 1.84678 4.061 
0.225364 1.84541 4.058 
0.244133 1.84359 4.054 
0.262865 1.84177 4.05 
0.28163 1.84041 4.047 
0.300811 1.84177 4.05 
0.320495 1.84587 4.059 
0.34043 1.85087 4.07 
0.360645 1.85678 4.083 
0.381911 1.86724 4.106 
0.402514 1.87361 4.12 
0.429698 1.90862 4.197 
0.457711 1.94409 4.275 
0.477738 1.94409 4.275 
0.489382 1.91135 4.203 
0.491266 1.8445 4.056 
0.499448 1.80539 3.97 
0.510347 1.77856 3.911 
0.524343 1.76401 3.879 
0.540837 1.75855 3.867 
0.558663 1.75764 3.865 
0.577665 1.76037 3.871 
0.598262 1.76765 3.887 
0.620912 1.78038 3.915 
0.64611 1.79948 3.957 
0.674389 1.82586 4.015 
0.705975 1.85951 4.089 
0.740381 1.89862 4.175 
0.777232 1.94182 4.27 
0.815719 1.98684 4.369 
0.855708 2.03323 4.471 
0.897829 2.08234 4.579 
0.957224 2.16829 4.768 
1.02147 2.26106 4.972 
1.08427 2.34656 5.16 
1.16322 2.46252 5.415 
1.218 2.52346 5.549 
1.26955 2.5753 5.663 
1.31096 2.60486 5.728 
1.34993 2.62851 5.78 
1.37916 2.6326 5.789 
1.41381 2.6467 5.82 
1.44825 2.65989 5.849 
1.49256 2.69035 5.916 
1.53132 2.70991 5.959 
1.56918 2.72719 5.997 
1.60686 2.74356 6.033 
1.63675 2.74629 6.039 
1.67 2.75448 6.057 
1.70343 2.76266 6.075 
1.7373 2.7713 6.094 
1.77164 2.7804 6.114 
1.80559 2.78858 6.132 
1.8391 2.79586 6.148 
1.87094 2.80041 6.158 
1.90133 2.80268 6.163 
1.92989 2.80222 6.162 
1.95685 2.7995 6.156 
1.98536 2.79904 6.155 
1.99784 2.7763 6.105 
2.01913 2.7663 6.083 
2.03417 2.74811 6.043 
2.06657 2.75357 6.055 
2.04096 2.68262 5.899 
2.05071 2.65943 5.848 
2.05394 2.62851 5.78 
2.03638 2.57212 5.656 
2.03151 2.53301 5.57 
2.03174 2.50117 5.5 
0 0 0 
0 0 0 
0 0 0 
0 0 0 
0 0 0 
2.3684 2.70945 5.958 
2.37741 2.68808 5.911 
2.39777 2.67989 5.893 
2.44843 2.70536 5.949 
2.48171 2.71127 5.962 
2.50543 2.70673 5.952 
2.52948 2.70263 5.943 
2.55603 2.70127 5.94 
2.5869 2.70445 5.947 
2.62224 2.71218 5.964 
2.6604 2.72264 5.987 
2.70416 2.73856 6.022 
2.74871 2.75493 6.058 
2.79542 2.77312 6.098 
2.84112 2.78995 6.135 
2.8867 2.80632 6.171 
2.93215 2.82223 6.206 
2.97649 2.83679 6.238 
3.01824 2.84861 6.264 
3.05732 2.85771 6.284 
3.09412 2.86453 6.299 
3.12958 2.86998 6.311 
3.16415 2.87453 6.321 
3.20033 2.88044 6.334 
3.2397 2.88908 6.353 
3.27666 2.89545 6.367 
3.3122 2.90045 6.378 
3.34365 2.90182 6.381 
3.37619 2.90409 6.386 
3.40611 2.90409 6.386 
3.4371 2.905 6.388 
3.46322 2.90182 6.381 
3.48983 2.89909 6.375 
3.51307 2.89363 6.363 
3.53898 2.89045 6.356 
3.56651 2.88863 6.352 
3.59853 2.89045 6.356 
3.63231 2.89363 6.363 
3.66902 2.89909 6.375 
3.70759 2.90591 6.39 
3.74513 2.91182 6.403 
3.77807 2.9141 6.408 
3.8075 2.91364 6.407 
3.83212 2.90955 6.398 
3.85545 2.90455 6.387 
3.87868 2.89954 6.376 
3.90487 2.89681 6.37 
3.93533 2.89727 6.371 
3.9714 2.90182 6.381 
4.01258 2.91 6.399 
4.05898 2.92183 6.425 
4.1069 2.93456 6.453 
4.15573 2.94775 6.482 
4.20288 2.95957 6.508 
4.24768 2.96958 6.53 
4.28941 2.97731 6.547 
4.32668 2.98185 6.557 
4.36005 2.98367 6.561 
4.38945 2.98276 6.559 
4.41479 2.97913 6.551 
4.43869 2.97458 6.541 
4.4625 2.97003 6.531 
4.48622 2.96548 6.521 
4.51053 2.96139 6.512 
4.53406 2.95684 6.502 
4.55821 2.95275 6.493 
4.58509 2.95048 6.488 
4.61619 2.95093 6.489 
4.65447 2.95593 6.5 
4.69934 2.96503 6.52 
4.74947 2.97731 6.547 
4.80277 2.9914 6.578 
4.85416 3.00414 6.606 
4.9036 3.01551 6.631 
4.9488 3.02415 6.65 
4.98969 3.03006 6.663 
5.02693 3.0337 6.671 
5.06121 3.03552 6.675 
5.09325 3.03597 6.676 
5.12222 3.03461 6.673 
5.14885 3.03188 6.667 
5.17309 3.02779 6.658 
5.19646 3.02324 6.648 
5.22053 3.01915 6.639 
5.24688 3.01642 6.633 
5.27716 3.01596 6.632 
5.31383 3.01915 6.639 
5.35459 3.0246 6.651 
5.39709 3.03097 6.665 
5.43727 3.03597 6.676 
5.47346 3.0387 6.682 
5.50229 3.03734 6.679 
5.52695 3.0337 6.671 
5.5507 3.0296 6.662 
5.57856 3.02779 6.658 
5.61312 3.0296 6.662 
5.65789 3.03688 6.678 
5.71047 3.04825 6.703 
5.76843 3.06235 6.734 
5.82753 3.0769 6.766 
5.88608 3.091 6.797 
5.9423 3.10373 6.825 
5.99178 3.11283 6.845 
6.03528 3.11874 6.858 
6.07006 3.1201 6.861 
6.09598 3.11692 6.854 
6.11647 3.11101 6.841 
6.13323 3.10328 6.824 
6.15165 3.09645 6.809 
6.17447 3.09191 6.799 
6.20449 3.091 6.797 
6.23817 3.09191 6.799 
6.27279 3.09327 6.802 
6.30836 3.09509 6.806 
6.3421 3.096 6.808 
6.374 3.096 6.808 
6.40307 3.09464 6.805 
6.43022 3.09236 6.8 
6.45637 3.08963 6.794 
6.48247 3.0869 6.788 
6.50851 3.08418 6.782 
6.53835 3.08327 6.78 
6.57012 3.08327 6.78 
6.6048 3.08463 6.783 
6.64147 3.0869 6.788 
6.6772 3.08872 6.792 
6.71198 3.09009 6.795 
6.74282 3.08963 6.794 
6.75869 3.08236 6.778 
0 0 0 
0 0 0 
-0 0 0 
-0 0 0 
-0 0 0 
-0 0 0 
-0 0 0 
-3.8069 1.8024 3.923 
-3.77307 1.79505 3.907 
-3.75092 1.79321 3.903 
-3.71829 1.78632 3.888 
-3.66201 1.76794 3.848 
-3.65156 1.77161 3.856 
-3.62501 1.76748 3.847 
-3.60512 1.76656 3.845 
-3.5899 1.76794 3.848 
-3.58301 1.77345 3.86 
-3.58802 1.78494 3.885 
-3.58269 1.79137 3.899 
-3.5763 1.79734 3.912 
-3.56707 1.80194 3.922 
-3.55775 1.80653 3.932 
-3.54923 1.81159 3.943 
-3.5415 1.8171 3.955 
-3.52921 1.82032 3.962 
-3.51242 1.82123 3.964 
-3.48504 1.81664 3.954 
-3.46652 1.81664 3.954 
-3.44625 1.81572 3.952 
-3.42773 1.81572 3.952 
-3.41526 1.81894 3.959 
-3.40014 1.82078 3.963 
-3.3739 1.81664 3.954 
-3.35198 1.8148 3.95 
-3.33348 1.8148 3.95 
-3.31162 1.81296 3.946 
-3.2948 1.81388 3.948 
-3.2763 1.81388 3.948 
-3.26194 1.81618 3.953 
-3.24178 1.81526 3.951 
-3.21919 1.81296 3.946 
-3.19746 1.81113 3.942 
-3.17173 1.80699 3.933 
-3.1509 1.80561 3.93 
-3.13568 1.80745 3.934 
-3.1014 1.79826 3.914 
-3.09016 1.8024 3.923 
-3.05847 1.79459 3.906 
-0 0 0 
-0 0 0 
-0 0 0 
-0 0 0 
-0 0 0 
-0 0 0 
-0 0 0 
-2.9598 1.82399 3.97 
-2.95231 1.83088 3.985 
-2.92407 1.82491 3.972 
-2.89742 1.81986 3.961 
-2.83162 1.78999 3.896 
-2.79315 1.77713 3.868 
-2.7657 1.77116 3.855 
-2.73767 1.76472 3.841 
-2.69772 1.75048 3.81 
-2.65807 1.73624 3.779 
-0 0 0 
-0 0 0 
-0 0 0 
-0 0 0 
-0 0 0 
-0 0 0 
-0 0 0 
-2.64429 1.82445 3.971 
-2.64619 1.83869 4.002 
-2.64386 1.85018 4.027 
-2.64063 1.86121 4.051 
-2.65078 1.88188 4.096 
-2.65151 1.89612 4.127 
-2.6309 1.89521 4.125 
-2.60588 1.89107 4.116 
-2.57717 1.88418 4.101 
-2.54798 1.87683 4.085 
-2.52017 1.8704 4.071 
-2.49373 1.86488 4.059 
-2.46923 1.86075 4.05 
-2.44602 1.85753 4.043 
-2.42288 1.85431 4.036 
-2.40099 1.85202 4.031 
-2.37915 1.84972 4.026 
-2.35033 1.84191 4.009 
-2.3234 1.83548 3.995 
-2.29719 1.8295 3.982 
-2.31344 1.85753 4.043 
-2.28542 1.85018 4.027 
-2.23447 1.82399 3.97 
-2.20973 1.81894 3.959 
-2.18565 1.81434 3.949 
-2.16331 1.81113 3.942 
-2.1677 1.83042 3.984 
-0 0 0 
-0 0 0 
-0 0 0 
-0 0 0 
-0 0 0 
-0 0 0 
-0 0 0 
-0 0 0 
-0 0 0 
-0 0 0 
-0 0 0 
-0 0 0 
-0 0 0 
-0 0 0 
-1.89058 1.83318 3.99 
-1.85829 1.81986 3.961 
-1.84345 1.82353 3.969 
-1.82761 1.82629 3.975 
-1.81081 1.82813 3.979 
-1.79217 1.82813 3.979 
-1.77264 1.82721 3.977 
-1.75048 1.82353 3.969 
-1.72883 1.82032 3.962 
-1.70768 1.81756 3.956 
-1.68701 1.81526 3.951 
-1.66808 1.8148 3.95 
-1.65125 1.81664 3.954 
-1.63644 1.82078 3.963 
-1.62278 1.82629 3.975 
-1.61021 1.83318 3.99 
-1.5959 1.83823 4.001 
-1.57952 1.84099 4.007 
-1.55803 1.83777 4 
-1.53198 1.82905 3.981 
-1.49964 1.81251 3.945 
-1.46802 1.79642 3.91 
-1.39483 1.72843 3.762 
-1.38636 1.73991 3.787 
-0 0 0 
-0 0 0 
-0 0 0 
-0 0 0 
-1.13078 1.51616 3.3 
-1.12208 1.52535 3.32 
-1.09553 1.51019 3.287 
-1.09787 1.535 3.341 
-1.07931 1.53087 3.332 
-1.06019 1.52581 3.321 
-1.03771 1.5157 3.299 
-1.0173 1.50835 3.283 
-0.994896 1.49779 3.26 
-0.979023 1.49687 3.258 
-0.964352 1.49779 3.26 
-0.951991 1.50238 3.27 
-0.937532 1.50376 3.273 
-0.923044 1.50514 3.276 
-0.908252 1.50606 3.278 
-0.893168 1.50652 3.279 
-0.87861 1.50789 3.282 
-0.864024 1.50927 3.285 
-0.849151 1.51019 3.287 
-0.834768 1.51203 3.291 
-0.820595 1.51433 3.296 
-0.807109 1.518 3.304 
-0.793547 1.52168 3.312 
-0.780146 1.52581 3.321 
-0.76666 1.52995 3.33 
-0.753541 1.535 3.341 
-0.74054 1.54051 3.353 
-0.727859 1.54695 3.367 
-0.715681 1.55476 3.384 
-0.704171 1.56441 3.405 
-0.692464 1.57405 3.426 
-0.680956 1.58462 3.449 
-0.668846 1.59427 3.47 
-0.656352 1.60346 3.49 
-0.643487 1.61219 3.509 
-0.629907 1.61954 3.525 
-0.615482 1.62505 3.537 
-0.600267 1.62873 3.545 
-0.584154 1.63011 3.548 
-0.567853 1.63102 3.55 
-0.551222 1.63102 3.55 
-0.534742 1.63148 3.551 
-0.518691 1.63332 3.555 
-0.503025 1.63654 3.562 
-0.487977 1.64205 3.574 
-0.473475 1.64986 3.591 
-0.459323 1.65951 3.612 
-0.445219 1.67008 3.635 
-0.4309 1.68064 3.658 
-0.416026 1.68983 3.678 
-0.400639 1.69764 3.695 
-0.384678 1.70362 3.708 
-0.368099 1.70729 3.716 
-0.351163 1.70959 3.721 
-0.334359 1.71281 3.728 
-0.317745 1.7174 3.738 
-0.301117 1.72245 3.749 
-0.284386 1.72751 3.76 
-0.267411 1.73164 3.769 
-0.249953 1.73302 3.772 
-0.232282 1.73302 3.772 
-0.214498 1.7321 3.77 
-0.196732 1.73118 3.768 
-0.180316 1.74313 3.794 
-0.162714 1.74497 3.798 
-0.145036 1.74635 3.801 
-0.127464 1.74956 3.808 
-0.10928 1.74405 3.796 
-0.091569 1.74543 3.799 
-0.0738302 1.7468 3.802 
-0.0561075 1.74956 3.808 
-0.0383588 1.7537 3.817 
-0.0205633 1.76105 3.833 
-0.00261995 1.76978 3.852 
0.0155335 1.78218 3.879 
0.0339572 1.79551 3.908 
0.0526928 1.81021 3.94 
0.0717102 1.82445 3.971 
0.0909498 1.83732 3.999 
0.110342 1.84834 4.023 
0.129799 1.85707 4.042 
0.149249 1.8635 4.056 
0.168665 1.8681 4.066 
0.187897 1.86994 4.07 
0.206964 1.86994 4.07 
0.225864 1.86856 4.067 
0.244555 1.8658 4.061 
0.26306 1.86213 4.053 
0.28149 1.85845 4.045 
0.300366 1.85799 4.044 
0.3201 1.86258 4.054 
0.339928 1.86718 4.064 
0.360203 1.87361 4.078 
0.381074 1.88234 4.097 
0.40271 1.89383 4.122 
0.434818 1.95126 4.247 
0.469489 2.01466 4.385 
0.489472 2.01236 4.38 
0.495553 1.95539 4.256 
0.49381 1.87315 4.077 
0.495548 1.80975 3.939 
0.507998 1.78861 3.893 
0.51799 1.76059 3.832 
0.534403 1.75553 3.821 
0.552593 1.75645 3.823 
0.571994 1.76105 3.833 
0.592875 1.76978 3.852 
0.61552 1.7831 3.881 
0.641048 1.80378 3.926 
0.669015 1.82996 3.983 
0.700277 1.8635 4.056 
0.734529 1.90302 4.142 
0.771589 1.94758 4.239 
0.810865 1.99536 4.343 
0.85188 2.04498 4.451 
0.894496 2.09598 4.562 
0.951804 2.17822 4.741 
1.06112 2.37303 5.165 
1.12566 2.46124 5.357 
1.17288 2.50856 5.46 
1.22524 2.56461 5.582 
1.27426 2.61148 5.684 
1.31599 2.6418 5.75 
1.35461 2.66477 5.8 
1.39083 2.68223 5.838 
1.41794 2.68177 5.837 
1.45147 2.69326 5.862 
1.49028 2.71393 5.907 
1.52618 2.72864 5.939 
1.56211 2.74288 5.97 
1.59754 2.75574 5.998 
1.62808 2.75988 6.007 
1.66118 2.76815 6.025 
1.69417 2.77596 6.042 
1.72761 2.78423 6.06 
1.76063 2.79158 6.076 
1.79293 2.79755 6.089 
1.82474 2.80261 6.1 
1.85332 2.80261 6.1 
1.88066 2.80077 6.096 
1.90577 2.79571 6.085 
1.91997 2.77504 6.04 
1.9502 2.7778 6.046 
1.96217 2.75482 5.996 
1.9564 2.70796 5.894 
1.96954 2.6882 5.851 
1.99046 2.67948 5.832 
1.99149 2.64456 5.756 
2.00442 2.62618 5.716 
2.00668 2.59448 5.647 
2.0155 2.57197 5.598 
2.01582 2.53935 5.527 
2.02325 2.51637 5.477 
0 0 0 
0 0 0 
0 0 0 
0 0 0 
2.27371 2.65926 5.788 
2.31593 2.67672 5.826 
2.34644 2.68039 5.834 
2.37702 2.68407 5.842 
2.4155 2.69647 5.869 
2.45091 2.7052 5.888 
2.47765 2.70429 5.886 
2.50437 2.70337 5.884 
2.53279 2.70429 5.886 
2.56385 2.70796 5.894 
2.59762 2.71439 5.908 
2.63418 2.72358 5.928 
2.67587 2.73782 5.959 
2.71967 2.75391 5.994 
2.76654 2.77274 6.035 
2.81473 2.7925 6.078 
2.86378 2.81271 6.122 
2.91325 2.83293 6.166 
2.96027 2.85039 6.204 
3.00379 2.86417 6.234 
3.04321 2.87382 6.255 
3.07841 2.87933 6.267 
3.11173 2.88301 6.275 
3.14413 2.88577 6.281 
3.1776 2.88944 6.289 
3.21777 2.89909 6.31 
3.2535 2.9046 6.322 
3.28831 2.9092 6.332 
3.31745 2.90874 6.331 
3.35081 2.91195 6.338 
3.3821 2.91333 6.341 
3.41289 2.91425 6.343 
3.44314 2.91471 6.344 
3.47122 2.91333 6.341 
3.49485 2.90828 6.33 
3.52117 2.90552 6.324 
3.54967 2.9046 6.322 
3.58098 2.90598 6.325 
3.61518 2.90966 6.333 
3.65175 2.91517 6.345 
3.68902 2.92114 6.358 
3.72466 2.92574 6.368 
3.75685 2.92757 6.372 
3.78432 2.92574 6.368 
3.80936 2.92206 6.36 
3.83312 2.91747 6.35 
3.858 2.91379 6.342 
3.88648 2.91287 6.34 
3.91927 2.91517 6.345 
3.95833 2.92206 6.36 
4.00192 2.93217 6.382 
4.04951 2.94503 6.41 
4.09736 2.9579 6.438 
4.14483 2.9703 6.465 
4.19061 2.98133 6.489 
4.23207 2.98914 6.506 
4.27107 2.99511 6.519 
4.30622 2.99833 6.526 
4.33879 2.99971 6.529 
4.36737 2.99833 6.526 
4.39457 2.99603 6.521 
4.42037 2.99282 6.514 
4.44542 2.98914 6.506 
4.4697 2.98501 6.497 
4.49252 2.97995 6.486 
4.51384 2.97398 6.473 
4.53644 2.96892 6.462 
4.56247 2.96617 6.456 
4.59414 2.96709 6.458 
4.63299 2.9726 6.47 
4.67843 2.98225 6.491 
4.72915 2.99511 6.519 
4.7816 3.0089 6.549 
4.83212 3.0213 6.576 
4.87845 3.03095 6.597 
4.92052 3.03784 6.612 
4.95898 3.04244 6.622 
4.99377 3.04473 6.627 
5.02633 3.04565 6.629 
5.05586 3.04473 6.627 
5.08461 3.04335 6.624 
5.11178 3.04106 6.619 
5.1389 3.03876 6.614 
5.16597 3.03646 6.609 
5.19458 3.03508 6.606 
5.22473 3.03463 6.605 
5.25727 3.03554 6.607 
5.29462 3.03922 6.615 
5.33366 3.04381 6.625 
5.3736 3.04887 6.636 
5.41121 3.05254 6.644 
5.44479 3.05392 6.647 
5.47263 3.05208 6.643 
5.4963 3.04795 6.634 
5.51988 3.04381 6.625 
5.54756 3.04198 6.621 
5.58279 3.04427 6.626 
5.62654 3.05117 6.641 
5.6781 3.06219 6.665 
5.73416 3.07552 6.694 
5.79222 3.08976 6.725 
5.84797 3.10262 6.753 
5.9005 3.11365 6.777 
5.94626 3.121 6.793 
5.98424 3.12422 6.8 
6.01433 3.1233 6.798 
6.03639 3.11824 6.787 
6.05388 3.11089 6.771 
6.07032 3.10308 6.754 
6.08841 3.09619 6.739 
6.11362 3.09297 6.732 
6.14425 3.09252 6.731 
6.17853 3.09389 6.734 
6.21377 3.09573 6.738 
6.24811 3.09711 6.741 
6.27969 3.09711 6.741 
6.3094 3.09619 6.739 
6.33626 3.09389 6.734 
6.36213 3.09114 6.728 
6.38795 3.08838 6.722 
6.41371 3.08562 6.716 
6.4423 3.08425 6.713 
6.47471 3.0847 6.714 
6.51101 3.087 6.719 
6.55124 3.09114 6.728 
6.59353 3.09619 6.739 
6.63493 3.10079 6.749 
6.67247 3.10354 6.755 
6.70709 3.10492 6.758 
6.73077 3.10124 6.75 
0 0 0 
0 0 0 
-0 0 0 
-0 0 0 
-0 0 0 
-0 0 0 
-0 0 0 
-3.78846 1.81196 3.904 
-3.75182 1.80314 3.885 
-3.72978 1.80128 3.881 
-3.68577 1.78875 3.854 
-3.6563 1.78318 3.842 
-3.64114 1.78457 3.845 
-3.60899 1.77761 3.83 
-3.5873 1.77575 3.826 
-3.57218 1.77715 3.829 
-3.56167 1.78086 3.837 
-3.5677 1.79293 3.863 
-3.56247 1.79943 3.877 
-3.55802 1.80639 3.892 
-3.54888 1.81103 3.902 
-3.54237 1.81706 3.915 
-3.52583 1.81799 3.917 
-3.51822 1.82356 3.929 
-3.50783 1.82774 3.938 
-3.49204 1.82913 3.941 
-3.47446 1.82959 3.942 
-3.45599 1.82959 3.942 
-3.43578 1.82867 3.94 
-3.41993 1.83006 3.943 
-3.40491 1.83191 3.947 
-3.39071 1.83424 3.952 
-3.36878 1.83238 3.948 
-3.34774 1.83099 3.945 
-3.32335 1.82774 3.938 
-3.29903 1.82449 3.931 
-3.27477 1.82124 3.924 
-3.25639 1.82124 3.924 
-3.23718 1.82078 3.923 
-3.2147 1.81845 3.918 
-3.19145 1.81567 3.912 
-3.16907 1.81335 3.907 
-3.14189 1.80824 3.896 
-3.11883 1.80546 3.89 
-3.09662 1.80314 3.885 
-3.07288 1.79989 3.878 
-3.05471 1.79989 3.878 
-3.03341 1.79803 3.874 
-3.01215 1.79618 3.87 
-0 0 0 
-0 0 0 
-0 0 0 
-0 0 0 
-3.05437 1.87786 4.046 
-2.9994 1.85558 3.998 
-2.94787 1.83516 3.954 
-2.91823 1.8282 3.939 
-2.89242 1.82356 3.929 
-2.85792 1.81335 3.907 
-2.81418 1.7971 3.872 
-2.7881 1.792 3.861 
-2.76212 1.78689 3.85 
-2.7341 1.7804 3.836 
-2.69631 1.7674 3.808 
-2.70801 1.78689 3.85 
-0 0 0 
-0 0 0 
-0 0 0 
-0 0 0 
-0 0 0 
-0 0 0 
-2.69777 1.86719 4.023 
-2.62698 1.83099 3.945 
-2.62239 1.84073 3.966 
-2.61956 1.85187 3.99 
-2.61782 1.86394 4.016 
-2.6456 1.89736 4.088 
-2.63159 1.90107 4.096 
-2.61113 1.90014 4.094 
-2.58625 1.89596 4.085 
-2.55894 1.88993 4.072 
-2.53113 1.88343 4.058 
-2.5047 1.87786 4.046 
-2.48083 1.87415 4.038 
-2.45764 1.8709 4.031 
-2.43573 1.86858 4.026 
-2.41447 1.86672 4.022 
-2.39325 1.86487 4.018 
-2.37206 1.86301 4.014 
-2.34622 1.85744 4.002 
-2.32049 1.85187 3.99 
-2.2943 1.84584 3.977 
-2.26652 1.83841 3.961 
-2.23888 1.83099 3.945 
-2.21139 1.82356 3.929 
-2.18629 1.81799 3.917 
-2.16185 1.81289 3.906 
-2.13916 1.80917 3.898 
-2.12961 1.8166 3.914 
-2.12314 1.82681 3.936 
-0 0 0 
-0 0 0 
-0 0 0 
-0 0 0 
-0 0 0 
-0 0 0 
-0 0 0 
-0 0 0 
-0 0 0 
-0 0 0 
-0 0 0 
-0 0 0 
-0 0 0 
-1.89153 1.8528 3.992 
-1.86251 1.84259 3.97 
-1.84391 1.84259 3.97 
-1.82761 1.84491 3.975 
-1.8099 1.84584 3.977 
-1.79127 1.84584 3.977 
-1.77264 1.84584 3.977 
-1.75136 1.84305 3.971 
-1.7297 1.8398 3.964 
-1.70811 1.83656 3.957 
-1.68701 1.83377 3.951 
-1.66808 1.83331 3.95 
-1.65125 1.83516 3.954 
-1.63685 1.8398 3.964 
-1.62318 1.84537 3.976 
-1.61021 1.85187 3.99 
-1.5967 1.85791 4.003 
-1.58031 1.86069 4.009 
-1.53933 1.83424 3.952 
-0 0 0 
-0 0 0 
-0 0 0 
-1.33958 1.6769 3.613 
-1.30106 1.64951 3.554 
-0 0 0 
-0 0 0 
-1.14128 1.5047 3.242 
-1.12331 1.50099 3.234 
-1.11296 1.50749 3.248 
-1.10112 1.51213 3.258 
-1.0842 1.50981 3.253 
-1.07816 1.5228 3.281 
-1.06181 1.52141 3.278 
-1.04486 1.51909 3.273 
-1.02638 1.51445 3.263 
-1.00893 1.5112 3.256 
-0.990624 1.50656 3.246 
-0.975718 1.50702 3.247 
-0.96169 1.50888 3.251 
-0.948789 1.51259 3.259 
-0.934668 1.51445 3.263 
-0.920509 1.51631 3.267 
-0.906035 1.5177 3.27 
-0.891261 1.51863 3.272 
-0.877004 1.52048 3.276 
-0.862709 1.52234 3.28 
-0.848118 1.52373 3.283 
-0.834007 1.52605 3.288 
-0.820097 1.52884 3.294 
-0.806376 1.53209 3.301 
-0.793068 1.53626 3.31 
-0.779911 1.54091 3.32 
-0.76666 1.54555 3.33 
-0.753541 1.55065 3.341 
-0.740982 1.55715 3.355 
-0.728291 1.56365 3.369 
-0.716316 1.572 3.387 
-0.705619 1.58361 3.412 
-0.694486 1.59474 3.436 
-0.683523 1.60681 3.462 
-0.671352 1.61656 3.483 
-0.658985 1.62631 3.504 
-0.646237 1.63559 3.524 
-0.632588 1.64301 3.54 
-0.618092 1.64858 3.552 
-0.602638 1.65183 3.559 
-0.586459 1.65323 3.562 
-0.569772 1.65323 3.562 
-0.55293 1.65276 3.561 
-0.536248 1.65276 3.561 
-0.520004 1.65415 3.564 
-0.504296 1.6574 3.571 
-0.489069 1.66251 3.582 
-0.474398 1.66993 3.598 
-0.459959 1.67875 3.617 
-0.445709 1.68896 3.639 
-0.431135 1.69871 3.66 
-0.416139 1.70753 3.679 
-0.40053 1.71449 3.694 
-0.384781 1.72145 3.709 
-0.368099 1.7247 3.716 
-0.351257 1.72749 3.722 
-0.334449 1.73073 3.729 
-0.317745 1.73491 3.738 
-0.301117 1.74002 3.749 
-0.284311 1.74466 3.759 
-0.267269 1.74837 3.767 
-0.249953 1.75069 3.772 
-0.232406 1.75162 3.774 
-0.214726 1.75162 3.774 
-0.197098 1.75208 3.775 
-0.179461 1.75255 3.776 
-0.162029 1.75533 3.782 
-0.144578 1.75858 3.789 
-0.127096 1.7623 3.797 
-0.109481 1.76508 3.803 
-0.0917377 1.76647 3.806 
-0.0739467 1.7674 3.808 
-0.0561665 1.76926 3.812 
-0.038389 1.77297 3.82 
-0.0205794 1.7804 3.836 
-0.00262199 1.78921 3.855 
0.0155415 1.80128 3.881 
0.0339746 1.81474 3.91 
0.0527062 1.82913 3.941 
0.0717102 1.84305 3.971 
0.0909725 1.85651 4 
0.110397 1.86812 4.025 
0.129927 1.87786 4.046 
0.149507 1.88575 4.063 
0.169038 1.89132 4.075 
0.188451 1.89457 4.082 
0.207625 1.89504 4.083 
0.22653 1.89318 4.079 
0.245157 1.88947 4.071 
0.263385 1.88343 4.058 
0.281282 1.87601 4.042 
0.299771 1.87322 4.036 
0.316231 1.85883 4.005 
0.334658 1.85698 4.001 
0.355345 1.86719 4.023 
0 0 0 
0 0 0 
0 0 0 
0.484371 2.09972 4.524 
0.505341 2.09879 4.522 
0.487752 1.94423 4.189 
0.506043 1.93913 4.178 
0.495926 1.82959 3.942 
0.50304 1.78921 3.855 
0.51407 1.76508 3.803 
0.529508 1.75719 3.786 
0.547967 1.75951 3.791 
0.567816 1.76601 3.805 
0.588719 1.77529 3.825 
0.611713 1.79014 3.857 
0.63664 1.80964 3.899 
0.664479 1.83609 3.956 
0.695098 1.86858 4.026 
0.729032 1.90803 4.111 
0.765764 1.95259 4.207 
0.805264 2.00179 4.313 
0.847096 2.05423 4.426 
0.889398 2.10529 4.536 
0.995569 2.30161 4.959 
1.05866 2.39165 5.153 
1.12356 2.48169 5.347 
1.17589 2.54064 5.474 
1.227 2.59448 5.59 
1.27471 2.63903 5.686 
1.31691 2.67059 5.754 
1.35764 2.69798 5.813 
1.3925 2.71283 5.845 
1.42644 2.72536 5.872 
1.45122 2.72026 5.861 
1.48625 2.73418 5.891 
1.51976 2.74485 5.914 
1.55348 2.75553 5.937 
1.58768 2.76667 5.961 
1.61859 2.77177 5.972 
1.65098 2.7792 5.988 
1.68324 2.78616 6.003 
1.71563 2.79312 6.018 
1.7473 2.79869 6.03 
1.77761 2.80194 6.037 
1.80769 2.80473 6.043 
1.83327 2.80055 6.034 
1.85721 2.79405 6.02 
1.86788 2.76806 5.964 
1.88914 2.75831 5.943 
1.9044 2.74021 5.904 
1.91079 2.71005 5.839 
1.91491 2.67756 5.769 
1.93015 2.66131 5.734 
1.95155 2.65389 5.718 
1.96 2.62929 5.665 
1.97497 2.61397 5.632 
1.9644 2.5657 5.528 
1.97481 2.54574 5.485 
1.97607 2.51465 5.418 
1.99074 2.50119 5.389 
0 0 0 
0 0 0 
0 0 0 
2.18022 2.60701 5.617 
2.24542 2.65296 5.716 
2.2885 2.67199 5.757 
2.32351 2.68127 5.777 
2.3579 2.68962 5.795 
2.39287 2.69844 5.814 
2.42635 2.7054 5.829 
2.4545 2.70633 5.831 
2.48266 2.70726 5.833 
2.51214 2.70958 5.838 
2.5434 2.71376 5.847 
2.57695 2.72026 5.861 
2.61329 2.72954 5.881 
2.65387 2.743 5.91 
2.69698 2.75878 5.944 
2.74408 2.77827 5.986 
2.79389 2.80009 6.033 
2.84507 2.82283 6.082 
2.89624 2.84511 6.13 
2.945 2.8646 6.172 
2.98837 2.87852 6.202 
3.02618 2.88688 6.22 
3.05925 2.89059 6.228 
3.08942 2.89152 6.23 
3.1191 2.89198 6.231 
3.15031 2.89384 6.235 
3.18768 2.90127 6.251 
3.2216 2.90544 6.26 
3.25664 2.91055 6.271 
3.28916 2.91333 6.277 
3.32385 2.91797 6.287 
3.35597 2.9203 6.292 
3.38867 2.92308 6.298 
3.41872 2.92354 6.299 
3.44166 2.91797 6.287 
3.47056 2.91751 6.286 
3.49722 2.91519 6.281 
3.52665 2.91519 6.281 
3.5589 2.91751 6.286 
3.59292 2.92122 6.294 
3.62931 2.92679 6.306 
3.66523 2.9319 6.317 
3.69892 2.93515 6.324 
3.72973 2.93608 6.326 
3.75639 2.93375 6.321 
3.78121 2.93004 6.313 
3.80595 2.92633 6.305 
3.83245 2.92401 6.3 
3.86319 2.92494 6.302 
3.89889 2.92958 6.312 
3.94028 2.9384 6.331 
3.98562 2.95 6.356 
4.03371 2.96346 6.385 
4.08208 2.97692 6.414 
4.12816 2.98852 6.439 
4.17188 2.99827 6.46 
4.21125 3.00477 6.474 
4.24748 3.00894 6.483 
4.28115 3.01126 6.488 
4.31221 3.01173 6.489 
4.34194 3.01126 6.488 
4.37098 3.01034 6.486 
4.39933 3.00894 6.483 
4.42697 3.00709 6.479 
4.45251 3.00384 6.472 
4.47521 2.99873 6.461 
4.49641 2.9927 6.448 
4.51819 2.98713 6.436 
4.54339 2.98388 6.429 
4.57493 2.98481 6.431 
4.61437 2.99084 6.444 
4.65969 3.00059 6.465 
4.70957 3.01312 6.492 
4.76042 3.02612 6.52 
4.80934 3.03772 6.545 
4.85331 3.04607 6.563 
4.89299 3.05164 6.575 
4.92903 3.05489 6.582 
4.96137 3.05582 6.584 
4.9907 3.05489 6.582 
5.01924 3.0535 6.579 
5.04699 3.05164 6.575 
5.07471 3.04979 6.571 
5.10393 3.04886 6.569 
5.13471 3.04886 6.569 
5.16784 3.05025 6.572 
5.20179 3.05211 6.576 
5.23817 3.05536 6.583 
5.27541 3.05907 6.591 
5.31353 3.06325 6.6 
5.35093 3.06696 6.608 
5.38677 3.06974 6.614 
5.41858 3.07021 6.615 
5.44627 3.06835 6.611 
5.47061 3.06464 6.603 
5.49571 3.06139 6.596 
5.52326 3.05953 6.592 
5.55836 3.06185 6.597 
5.60112 3.06835 6.611 
5.65083 3.07856 6.633 
5.70504 3.09109 6.66 
5.75949 3.10363 6.687 
5.81074 3.1143 6.71 
5.85784 3.12266 6.728 
5.89811 3.1273 6.738 
5.93056 3.12776 6.739 
5.95682 3.12498 6.733 
5.9768 3.11894 6.72 
5.99398 3.11152 6.704 
6.0119 3.10455 6.689 
6.0342 3.09991 6.679 
6.06186 3.09806 6.675 
6.09495 3.09898 6.677 
6.1299 3.10084 6.681 
6.16397 3.10223 6.684 
6.19528 3.10223 6.684 
6.2238 3.10084 6.681 
6.25041 3.09852 6.676 
6.2751 3.09527 6.669 
6.29972 3.09202 6.662 
6.32618 3.0897 6.657 
6.3545 3.08831 6.654 
6.38567 3.08831 6.654 
6.42167 3.09063 6.659 
6.46255 3.09527 6.669 
6.50645 3.10131 6.682 
6.55243 3.10827 6.697 
6.59659 3.1143 6.71 
6.6379 3.11894 6.72 
6.67335 3.1208 6.724 
6.70186 3.11941 6.721 
0 0 0 
0 0 0 
-0 0 0 
-0 0 0 
-0 0 0 
-0 0 0 
-0 0 0 
-3.79816 1.83493 3.914 
-3.75955 1.82509 3.893 
-3.72017 1.81477 3.871 
-3.70394 1.81571 3.873 
-3.68961 1.81759 3.877 
-3.66671 1.81524 3.872 
-3.5958 1.78899 3.816 
-3.57324 1.78665 3.811 
-3.55725 1.78758 3.813 
-3.54496 1.7904 3.819 
-3.52799 1.79087 3.82 
-3.54409 1.80821 3.857 
-3.53974 1.81524 3.872 
-3.53433 1.82181 3.886 
-3.5306 1.82931 3.902 
-3.51592 1.83118 3.906 
-3.50927 1.83728 3.919 
-3.49714 1.84056 3.926 
-3.4823 1.84244 3.93 
-3.46477 1.8429 3.931 
-3.44986 1.84478 3.935 
-3.42794 1.8429 3.931 
-3.40865 1.84244 3.93 
-3.39283 1.84384 3.933 
-3.37955 1.84665 3.939 
-3.35769 1.84478 3.935 
-3.33925 1.84478 3.935 
-3.31154 1.83962 3.924 
-3.2814 1.83306 3.91 
-3.25224 1.82696 3.897 
-3.22983 1.82462 3.892 
-3.2083 1.82274 3.888 
-3.18352 1.81899 3.88 
-3.16208 1.81712 3.876 
-3.13987 1.81477 3.871 
-3.1169 1.81196 3.865 
-3.09719 1.81102 3.863 
-3.08307 1.81337 3.868 
-3.06575 1.81384 3.869 
-3.04998 1.81524 3.872 
-3.03889 1.81946 3.881 
-3.02305 1.82087 3.884 
-0 0 0 
-0 0 0 
-0 0 0 
-0 0 0 
-3.02266 1.87713 4.004 
-2.9904 1.86869 3.986 
-2.93296 1.84431 3.934 
-2.90341 1.83728 3.919 
-2.87696 1.83212 3.908 
-2.84987 1.8265 3.896 
-2.81563 1.81618 3.874 
-2.7881 1.81009 3.861 
-2.76427 1.80634 3.853 
-2.73624 1.79977 3.839 
-2.70055 1.78805 3.814 
-0 0 0 
-0 0 0 
-0 0 0 
-0 0 0 
-0 0 0 
-0 0 0 
-0 0 0 
-2.60992 1.82462 3.892 
-2.60634 1.83493 3.914 
-2.59528 1.84009 3.925 
-2.62285 1.87291 3.995 
-2.61717 1.88228 4.015 
-2.61713 1.89588 4.044 
-2.60396 1.9001 4.053 
-2.58498 1.9001 4.053 
-2.56219 1.89729 4.047 
-2.53695 1.8926 4.037 
-2.51242 1.88838 4.028 
-2.48984 1.88557 4.022 
-2.46854 1.88369 4.018 
-2.4485 1.88275 4.016 
-2.42847 1.88182 4.014 
-2.40847 1.88088 4.012 
-2.38848 1.87994 4.01 
-2.36792 1.87853 4.007 
-2.34388 1.87431 3.998 
-2.31875 1.86916 3.987 
-2.292 1.86259 3.973 
-2.26366 1.85462 3.956 
-2.23434 1.84572 3.937 
-2.20577 1.83728 3.919 
-2.17792 1.82931 3.902 
-2.15244 1.82321 3.889 
-2.12764 1.81759 3.877 
-2.10132 1.81056 3.862 
-2.09725 1.82274 3.888 
-2.08492 1.8279 3.899 
-0 0 0 
-0 0 0 
-0 0 0 
-0 0 0 
-0 0 0 
-0 0 0 
-0 0 0 
-0 0 0 
-0 0 0 
-0 0 0 
-0 0 0 
-0 0 0 
-1.711 1.69288 3.611 
-1.86392 1.86259 3.973 
-1.84066 1.85791 3.963 
-1.82485 1.86072 3.969 
-1.80671 1.86119 3.97 
-1.78857 1.86166 3.971 
-1.77264 1.86447 3.977 
-1.7518 1.86213 3.972 
-1.73058 1.85931 3.966 
-1.70941 1.8565 3.96 
-1.68744 1.85275 3.952 
-1.66808 1.85181 3.95 
-1.65083 1.85322 3.953 
-1.63603 1.85744 3.962 
-1.62237 1.86306 3.974 
-1.60577 1.86541 3.979 
-1.59032 1.86916 3.987 
-0 0 0 
-0 0 0 
-0 0 0 
-0 0 0 
-1.23224 1.53864 3.282 
-1.22502 1.54896 3.304 
-1.20368 1.54146 3.288 
-1.16298 1.50864 3.218 
-1.14648 1.50676 3.214 
-1.13213 1.5077 3.216 
-1.11706 1.5077 3.216 
-1.10439 1.51098 3.223 
-1.09132 1.5138 3.229 
-1.0762 1.5138 3.229 
-1.066 1.52083 3.244 
-1.05048 1.52036 3.243 
-1.03497 1.51989 3.242 
-1.01883 1.51849 3.239 
-1.00335 1.51802 3.238 
-0.987572 1.51708 3.236 
-0.973314 1.51849 3.239 
-0.959619 1.52083 3.244 
-0.946751 1.52458 3.252 
-0.932662 1.52645 3.256 
-0.918818 1.5288 3.261 
-0.90465 1.53067 3.265 
-0.890444 1.53255 3.269 
-0.876468 1.53489 3.274 
-0.862183 1.53677 3.278 
-0.848118 1.53911 3.283 
-0.834007 1.54146 3.288 
-0.820346 1.54474 3.295 
-0.80662 1.54802 3.302 
-0.793308 1.55224 3.311 
-0.780381 1.5574 3.322 
-0.767351 1.56255 3.333 
-0.754218 1.56771 3.344 
-0.740982 1.57287 3.355 
-0.729589 1.58224 3.375 
-0.717585 1.59068 3.393 
-0.706033 1.60053 3.414 
-0.69489 1.61178 3.438 
-0.686879 1.631 3.479 
-0.674822 1.64131 3.501 
-0.662182 1.65069 3.521 
-0.648988 1.65913 3.539 
-0.635268 1.66663 3.555 
-0.620354 1.67132 3.565 
-0.60467 1.67413 3.571 
-0.58827 1.67507 3.573 
-0.571372 1.6746 3.572 
-0.554328 1.67366 3.57 
-0.537453 1.67319 3.569 
-0.521171 1.6746 3.572 
-0.505285 1.67741 3.578 
-0.490025 1.68257 3.589 
-0.475189 1.6896 3.604 
-0.460722 1.69851 3.623 
-0.446077 1.70742 3.642 
-0.431371 1.71679 3.662 
-0.416139 1.72476 3.679 
-0.400422 1.73133 3.693 
-0.382395 1.72804 3.686 
-0.365623 1.73039 3.691 
-0.351446 1.74586 3.724 
-0.334808 1.75008 3.733 
-0.318085 1.7543 3.742 
-0.301438 1.75946 3.753 
-0.284613 1.76414 3.763 
-0.267623 1.76836 3.772 
-0.25035 1.77118 3.778 
-0.23296 1.77352 3.783 
-0.215408 1.77493 3.786 
-0.197829 1.77633 3.789 
-0.180316 1.77868 3.794 
-0.1628 1.78149 3.8 
-0.145303 1.78524 3.808 
-0.127665 1.78805 3.814 
-0.109942 1.7904 3.819 
-0.0920751 1.79087 3.82 
-0.0741797 1.79087 3.82 
-0.0563138 1.7918 3.822 
-0.0384694 1.79462 3.828 
-0.0206062 1.80071 3.841 
-0.00262403 1.80868 3.858 
0.0155495 1.8204 3.883 
0.0339833 1.83353 3.911 
0.0527062 1.84759 3.941 
0.0717283 1.86213 3.972 
0.0909953 1.87572 4.001 
0.110479 1.88838 4.028 
0.130088 1.89916 4.051 
0.149801 1.90854 4.071 
0.169494 1.91557 4.086 
0.189098 1.92026 4.096 
0.208489 1.92213 4.1 
0.22753 1.92073 4.097 
0.246181 1.91651 4.088 
0.264228 1.90854 4.071 
0.281699 1.89775 4.048 
0.297617 1.87853 4.007 
0 0 0 
0 0 0 
0 0 0 
0 0 0 
0 0 0 
0.490104 2.24421 4.787 
0.482872 2.11435 4.51 
0 0 0 
0 0 0 
0.48085 1.86119 3.97 
0.491522 1.83165 3.907 
0.498864 1.79227 3.823 
0.514611 1.78477 3.807 
0.525592 1.7618 3.758 
0.544498 1.76602 3.767 
0.565577 1.7768 3.79 
0.586718 1.78712 3.812 
0.608541 1.79884 3.837 
0.633374 1.81853 3.879 
0.660616 1.84384 3.933 
0.690609 1.87525 4 
0.723712 1.91323 4.081 
0.760304 1.95823 4.177 
0.800036 2.00886 4.285 
0.842885 2.06465 4.404 
0.884888 2.11575 4.513 
0.990751 2.31359 4.935 
1.05352 2.40407 5.128 
1.12272 2.50487 5.343 
1.17353 2.56113 5.463 
1.22436 2.61504 5.578 
1.27202 2.66004 5.674 
1.31668 2.69708 5.753 
1.35577 2.72146 5.805 
1.39154 2.73834 5.841 
1.42571 2.75146 5.869 
1.45915 2.76271 5.893 
1.49155 2.77162 5.912 
1.52207 2.77678 5.923 
1.55165 2.78006 5.93 
1.57943 2.78006 5.93 
1.60883 2.78287 5.936 
1.6394 2.78756 5.946 
1.67034 2.79272 5.957 
1.7011 2.79741 5.967 
1.73137 2.80116 5.975 
1.75995 2.8021 5.977 
1.78077 2.79084 5.953 
1.80136 2.77959 5.929 
1.82173 2.76834 5.905 
1.83875 2.7524 5.871 
1.85799 2.74021 5.845 
1.87473 2.72474 5.812 
1.87512 2.6863 5.73 
1.87342 2.64598 5.644 
1.84263 2.56628 5.474 
1.75087 2.40501 5.13 
1.81261 2.45611 5.239 
1.82804 2.44392 5.213 
1.84251 2.4308 5.185 
1.97049 2.56581 5.473 
1.97972 2.54472 5.428 
1.99776 2.53534 5.408 
2.04254 2.55972 5.46 
2.12418 2.6291 5.608 
2.11211 2.58222 5.508 
2.1678 2.61832 5.585 
2.22264 2.65254 5.658 
2.26465 2.67083 5.697 
2.3026 2.68395 5.725 
2.33837 2.69427 5.747 
2.3727 2.70271 5.765 
2.40553 2.70927 5.779 
2.43513 2.71208 5.785 
2.46436 2.71443 5.79 
2.49493 2.71818 5.798 
2.52687 2.72333 5.809 
2.56112 2.73084 5.825 
2.59774 2.74068 5.846 
2.63815 2.75428 5.875 
2.6811 2.77022 5.909 
2.72803 2.78991 5.951 
2.77768 2.81194 5.998 
2.82917 2.83538 6.048 
2.87971 2.85741 6.095 
2.92735 2.87617 6.135 
2.96909 2.88883 6.162 
3.0038 2.89445 6.174 
3.03371 2.89539 6.176 
3.05867 2.89164 6.168 
3.08656 2.8907 6.166 
3.11596 2.89117 6.167 
3.14332 2.88976 6.164 
3.18506 2.90148 6.189 
3.2208 2.90758 6.202 
3.26034 2.91695 6.222 
3.29583 2.92258 6.234 
3.3277 2.92492 6.239 
3.35585 2.92399 6.237 
3.38453 2.92352 6.236 
3.41265 2.92258 6.234 
3.44019 2.92117 6.231 
3.46771 2.91977 6.228 
3.49801 2.9207 6.23 
3.53116 2.92399 6.237 
3.56666 2.92914 6.248 
3.60226 2.9343 6.259 
3.6368 2.93852 6.268 
3.66909 2.94086 6.273 
3.69789 2.94039 6.272 
3.7243 2.93805 6.267 
3.74887 2.9343 6.259 
3.77456 2.93149 6.253 
3.80264 2.93055 6.251 
3.83499 2.93289 6.256 
3.87295 2.93946 6.27 
3.91539 2.9493 6.291 
3.96242 2.96243 6.319 
4.01097 2.97649 6.349 
4.05981 2.99056 6.379 
4.10572 3.00228 6.404 
4.14734 3.01072 6.422 
4.18654 3.01728 6.436 
4.22193 3.02103 6.444 
4.25475 3.02291 6.448 
4.28629 3.02384 6.45 
4.31718 3.02431 6.451 
4.34807 3.02478 6.452 
4.37897 3.02525 6.453 
4.40852 3.02478 6.452 
4.43599 3.02291 6.448 
4.45997 3.01869 6.439 
4.48176 3.01306 6.427 
4.50345 3.00744 6.415 
4.52855 3.00415 6.408 
4.56 3.00509 6.41 
4.59862 3.01072 6.422 
4.64312 3.02009 6.442 
4.69071 3.03134 6.466 
4.73925 3.04306 6.491 
4.78582 3.05338 6.513 
4.82743 3.06041 6.528 
4.86471 3.06463 6.537 
4.89758 3.06604 6.54 
4.92821 3.06604 6.54 
4.95506 3.06369 6.535 
4.98186 3.06135 6.53 
5.00785 3.05854 6.524 
5.03532 3.05666 6.52 
5.06586 3.05666 6.52 
5.09953 3.05854 6.524 
5.1356 3.06182 6.531 
5.17411 3.06651 6.541 
5.21191 3.07072 6.55 
5.2506 3.07541 6.56 
5.28858 3.07963 6.569 
5.32502 3.08291 6.576 
5.36071 3.08573 6.582 
5.39318 3.08666 6.584 
5.4232 3.0862 6.583 
5.4499 3.08385 6.578 
5.47655 3.08151 6.573 
5.50567 3.08057 6.571 
5.54066 3.08291 6.576 
5.58164 3.08854 6.588 
5.62868 3.09745 6.607 
5.67848 3.10776 6.629 
5.72762 3.11761 6.65 
5.77436 3.12604 6.668 
5.81518 3.1312 6.679 
5.84997 3.13308 6.683 
5.87776 3.1312 6.679 
5.9002 3.12651 6.669 
5.91988 3.12042 6.656 
5.93944 3.11432 6.643 
5.96067 3.10917 6.632 
5.98812 3.10729 6.628 
6.02008 3.10776 6.629 
6.05479 3.10964 6.633 
6.08953 3.11151 6.637 
6.12062 3.11151 6.637 
6.14893 3.11011 6.634 
6.17349 3.10682 6.627 
6.19705 3.10307 6.619 
6.22053 3.09932 6.611 
6.24677 3.09698 6.606 
6.27487 3.09557 6.603 
6.3058 3.09557 6.603 
6.34153 3.09792 6.608 
6.3802 3.10167 6.616 
6.42282 3.10729 6.628 
6.46945 3.11479 6.644 
6.51623 3.12229 6.66 
6.56119 3.12886 6.674 
6.60234 3.13355 6.684 
6.63961 3.13636 6.69 
6.66995 3.13589 6.689 
0 0 0 
0 0 0 
-0 0 0 
-0 0 0 
-0 0 0 
-0 0 0 
-0 0 0 
-0 0 0 
-0 0 0 
-0 0 0 
-0 0 0 
-0 0 0 
-0 0 0 
-3.63821 1.82817 3.861 
-3.56292 1.79929 3.8 
-3.54606 1.79976 3.801 
-3.53196 1.80166 3.805 
-3.51691 1.80308 3.808 
-3.50642 1.80687 3.816 
-3.52328 1.82486 3.854 
-3.51887 1.83196 3.869 
-3.50527 1.83433 3.874 
-3.50242 1.84238 3.891 
-3.49942 1.85043 3.908 
-3.48913 1.85469 3.917 
-3.47609 1.85753 3.923 
-3.45948 1.85848 3.925 
-3.44021 1.858 3.924 
-3.41747 1.85564 3.919 
-3.39651 1.85422 3.916 
-3.38075 1.85564 3.919 
-3.3684 1.85895 3.926 
-3.34745 1.85753 3.923 
-3.31719 1.8509 3.909 
-3.30141 1.85232 3.912 
-3.2621 1.84049 3.887 
-3.22637 1.83054 3.866 
-3.19996 1.82581 3.856 
-3.17694 1.82297 3.85 
-3.15152 1.8187 3.841 
-3.13026 1.81681 3.837 
-3.10905 1.81492 3.833 
-3.09109 1.81492 3.833 
-3.07634 1.81681 3.837 
-3.07431 1.82628 3.857 
-3.05941 1.82817 3.861 
-3.04447 1.83007 3.865 
-3.03498 1.83528 3.876 
-3.00826 1.83007 3.865 
-0 0 0 
-0 0 0 
-0 0 0 
-0 0 0 
-0 0 0 
-0 0 0 
-2.91954 1.85422 3.916 
-2.8886 1.84617 3.899 
-2.86076 1.84001 3.886 
-2.86158 1.85232 3.912 
-2.81563 1.83433 3.874 
-2.78737 1.8277 3.86 
-2.76714 1.82628 3.857 
-2.73196 1.81492 3.833 
-2.7048 1.80876 3.82 
-2.74669 1.84901 3.905 
-0 0 0 
-0 0 0 
-0 0 0 
-0 0 0 
-0 0 0 
-0 0 0 
-2.58645 1.82628 3.857 
-2.57437 1.83054 3.866 
-2.5675 1.83859 3.883 
-2.58214 1.86227 3.933 
-2.58197 1.87552 3.961 
-2.58024 1.88784 3.987 
-2.56991 1.89399 4 
-2.55373 1.89588 4.004 
-2.53433 1.89541 4.003 
-2.51307 1.89352 3.999 
-2.49309 1.89257 3.997 
-2.47436 1.89257 3.997 
-2.45687 1.89352 3.999 
-2.43935 1.89446 4.001 
-2.42182 1.89541 4.003 
-2.40307 1.89541 4.003 
-2.38372 1.89494 4.002 
-2.3632 1.89352 3.999 
-2.34095 1.89068 3.993 
-2.31642 1.88594 3.983 
-2.28969 1.87931 3.969 
-2.26022 1.87032 3.95 
-2.2298 1.86037 3.929 
-2.19901 1.84996 3.907 
-2.16843 1.83954 3.885 
-2.14027 1.83102 3.867 
-2.11337 1.82344 3.851 
-2.08608 1.81539 3.834 
-2.05679 1.80545 3.813 
-2.06032 1.82439 3.853 
-2.04598 1.8277 3.86 
-0 0 0 
-0 0 0 
-0 0 0 
-0 0 0 
-0 0 0 
-0 0 0 
-0 0 0 
-0 0 0 
-0 0 0 
-0 0 0 
-0 0 0 
-1.76265 1.76141 3.72 
-1.79261 1.80923 3.821 
-1.83276 1.86842 3.946 
-1.80784 1.86179 3.932 
-1.79943 1.87221 3.954 
-1.78226 1.87363 3.957 
-1.77041 1.88073 3.972 
-1.75136 1.88026 3.971 
-1.73145 1.87884 3.968 
-1.71027 1.876 3.962 
-1.68787 1.87174 3.953 
-1.6685 1.87079 3.951 
-1.65375 1.87505 3.96 
-1.6352 1.87505 3.96 
-0 0 0 
-0 0 0 
-0 0 0 
-0 0 0 
-0 0 0 
-0 0 0 
-0 0 0 
-1.18906 1.49957 3.167 
-1.17793 1.5043 3.177 
-1.16671 1.50904 3.187 
-1.15358 1.5114 3.192 
-1.14006 1.5133 3.196 
-1.12614 1.51472 3.199 
-1.11185 1.51567 3.201 
-1.09891 1.51851 3.207 
-1.08558 1.52087 3.212 
-1.07053 1.52087 3.212 
-1.05844 1.52514 3.221 
-1.04368 1.52561 3.222 
-1.0289 1.52608 3.223 
-1.01412 1.52656 3.224 
-0.999633 1.5275 3.226 
-0.98513 1.52845 3.228 
-0.971811 1.53129 3.234 
-0.958436 1.53413 3.24 
-0.945296 1.53745 3.247 
-0.931517 1.53981 3.252 
-0.917691 1.54218 3.257 
-0.903818 1.54455 3.262 
-0.889899 1.54692 3.267 
-0.8762 1.54976 3.273 
-0.862446 1.5526 3.279 
-0.848635 1.55544 3.285 
-0.835021 1.55875 3.292 
-0.821342 1.56207 3.299 
-0.807842 1.56586 3.307 
-0.794745 1.57059 3.317 
-0.782025 1.57627 3.329 
-0.768963 1.58148 3.34 
-0.756248 1.58764 3.353 
-0.743191 1.59332 3.365 
-0.732615 1.60468 3.389 
-0.72118 1.61463 3.41 
-0.709548 1.62457 3.431 
-0.698932 1.63735 3.458 
-0.69063 1.65629 3.498 
-0.678098 1.66576 3.518 
-0.665379 1.67523 3.538 
-0.651922 1.68328 3.555 
-0.63777 1.68991 3.569 
-0.622617 1.69417 3.578 
-0.606701 1.69654 3.583 
-0.590081 1.69702 3.584 
-0.572971 1.69607 3.582 
-0.555725 1.69465 3.579 
-0.538808 1.69417 3.578 
-0.522338 1.69512 3.58 
-0.506414 1.69796 3.586 
-0.491117 1.70317 3.597 
-0.476112 1.7098 3.611 
-0.461485 1.71832 3.629 
-0.446812 1.72732 3.648 
-0.431842 1.73584 3.666 
-0.416478 1.74342 3.682 
-0.40053 1.7491 3.694 
-0.382914 1.74768 3.691 
-0.366217 1.75052 3.697 
-0.350031 1.7562 3.709 
-0.335615 1.77183 3.742 
-0.31885 1.77609 3.751 
-0.302161 1.7813 3.762 
-0.28537 1.78651 3.773 
-0.268404 1.79124 3.783 
-0.251212 1.79503 3.791 
-0.233945 1.79882 3.799 
-0.216489 1.80166 3.805 
-0.198978 1.8045 3.811 
-0.18141 1.80734 3.817 
-0.163828 1.81065 3.824 
-0.146143 1.8135 3.83 
-0.128368 1.81586 3.835 
-0.11046 1.81681 3.837 
-0.0924608 1.81634 3.836 
-0.0744516 1.81539 3.834 
-0.0564906 1.81539 3.834 
-0.0385598 1.81681 3.837 
-0.0206384 1.82155 3.847 
-0.00262743 1.82912 3.863 
0.0155615 1.84001 3.886 
0.033992 1.85232 3.912 
0.0527196 1.86653 3.942 
0.0717283 1.88073 3.972 
0.0909953 1.89446 4.001 
0.110507 1.90772 4.029 
0.130216 1.92003 4.055 
0.150059 1.93092 4.078 
0.169951 1.93992 4.097 
0.189836 1.94702 4.112 
0.209456 1.95034 4.119 
0.228807 1.95081 4.12 
0.247686 1.9475 4.113 
0.266435 1.94371 4.105 
0.283439 1.92856 4.073 
0 0 0 
0 0 0 
0 0 0 
0 0 0 
0 0 0 
0.531964 2.57819 5.445 
0.559622 2.58814 5.466 
0.494221 2.18566 4.616 
0 0 0 
0 0 0 
0 0 0 
0.488251 1.83764 3.881 
0.495863 1.79929 3.8 
0.511096 1.79029 3.781 
0.522515 1.76899 3.736 
0.541896 1.77514 3.749 
0.563488 1.78793 3.776 
0.583948 1.79645 3.794 
0.606004 1.80923 3.821 
0.630435 1.82817 3.861 
0.657089 1.85232 3.912 
0.686638 1.8831 3.977 
0.719278 1.92051 4.056 
0.755571 1.96549 4.151 
0.795928 2.01852 4.263 
0.840588 2.0796 4.392 
0.922535 2.22781 4.705 
0.984929 2.32298 4.906 
1.0564 2.43472 5.142 
1.11432 2.51096 5.303 
1.16751 2.57346 5.435 
1.2191 2.62981 5.554 
1.26888 2.68 5.66 
1.3121 2.71456 5.733 
1.3518 2.7406 5.788 
1.38845 2.75954 5.828 
1.42304 2.77375 5.858 
1.45593 2.78417 5.88 
1.48726 2.79127 5.895 
1.51642 2.79411 5.901 
1.54432 2.79458 5.902 
1.5709 2.79269 5.898 
1.59881 2.79316 5.899 
1.62754 2.79506 5.903 
1.65632 2.79695 5.907 
1.68542 2.79932 5.912 
1.71369 2.80027 5.914 
1.7411 2.79979 5.913 
1.76073 2.78701 5.886 
1.77645 2.76854 5.847 
1.7952 2.75528 5.819 
1.79991 2.72119 5.747 
1.82747 2.72214 5.749 
1.79538 2.63549 5.566 
1.83323 2.65253 5.602 
1.7994 2.56683 5.421 
1.83354 2.57914 5.447 
1.84029 2.5531 5.392 
1.81469 2.48349 5.245 
1.8319 2.47355 5.224 
1.84855 2.46313 5.202 
1.86608 2.45414 5.183 
1.98592 2.57819 5.445 
2.00551 2.57062 5.429 
2.03057 2.57015 5.428 
2.06244 2.57819 5.445 
2.10904 2.60424 5.5 
2.15654 2.63075 5.556 
2.20496 2.65774 5.613 
2.24477 2.67384 5.647 
2.28329 2.68805 5.677 
2.31965 2.69941 5.701 
2.35418 2.70841 5.72 
2.3868 2.71504 5.734 
2.41745 2.7193 5.743 
2.44776 2.72308 5.751 
2.47901 2.72782 5.761 
2.51208 2.73445 5.775 
2.54661 2.7425 5.792 
2.58397 2.75339 5.815 
2.62513 2.76807 5.846 
2.66794 2.78417 5.88 
2.71382 2.80311 5.92 
2.76193 2.82394 5.964 
2.81139 2.84572 6.01 
2.85939 2.86561 6.052 
2.90396 2.88171 6.086 
2.94308 2.89212 6.108 
2.9751 2.89544 6.115 
2.99981 2.89165 6.107 
3.02594 2.88928 6.102 
3.04702 2.88218 6.087 
3.07655 2.88313 6.089 
3.11221 2.88976 6.103 
3.14955 2.89781 6.12 
3.18757 2.90633 6.138 
3.22628 2.91532 6.157 
